ncols         282
nrows         44
xllcorner     318017.9701
yllcorner     3850199.6891
cellsize      4
NODATA_value  -9999
-9999 -9999 -9999 -9999 -9999 -9999 -9999 -9999 -9999 -9999 -9999 -9999 -9999 1535.137 1535.143 1535.154 1535.198 1535.236 1535.238 1535.218 1535.194 1535.146 1535.134 1535.137 1535.117 1535.126 1535.109 1535.114 1535.123 1535.104 1535.102 1535.129 1535.114 1535.129 1535.09 1535.079 1535.05 1533.825 1531.56 1527.881 1527.146 1527.076 1526.317 1524.842 1524.797 1524.966 1526.412 1526.848 1526.852 1526.843 1526.789 1526.644 1526.494 1526.511 1526.543 1526.613 1526.605 1526.632 1526.659 1526.664 1526.63 1526.574 1526.576 1526.616 1526.693 1526.624 1526.57 1526.574 1526.632 1526.845 1526.687 1526.617 1526.5 1526.758 1526.749 1526.646 1526.791 1526.74 1526.773 1526.672 1526.762 1527.71 1528.888 1530.616 1532.163 1533.99 1534.728 1534.923 1535.195 1535.136 1534.817 1534.758 1534.894 1534.96 1534.912 1534.733 1534.464 1533.877 1533.842 1534.246 1534.467 1534.464 1534.449 1534.646 1534.816 1534.835 1535.184 1535.191 1534.812 1534.666 1534.349 1534.508 1534.632 1534.751 1534.767 1534.813 1534.809 1534.836 1534.863 1534.889 1534.836 1534.752 1534.815 1534.907 1534.88 1534.795 1534.771 1534.715 1534.78 1534.737 1534.71 1534.729 1534.749 1534.734 1534.764 1534.762 1534.65 1534.631 1534.601 1534.591 1534.582 1534.594 1534.609 1534.616 1534.637 1534.574 1534.493 1534.51 1534.515 1534.545 1534.413 1534.425 1534.439 1534.464 1534.438 1534.434 -9999 -9999 -9999 -9999 -9999 -9999 -9999 -9999 -9999 -9999 -9999 -9999 -9999 -9999 -9999 -9999 -9999 -9999 -9999 -9999 -9999 -9999 -9999 -9999 -9999 -9999 -9999 -9999 -9999 -9999 -9999 -9999 -9999 -9999 -9999 -9999 -9999 -9999 -9999 -9999 -9999 -9999 -9999 -9999 -9999 -9999 -9999 -9999 -9999 -9999 -9999 -9999 -9999 -9999 -9999 -9999 -9999 -9999 -9999 -9999 -9999 -9999 -9999 -9999 -9999 -9999 -9999 -9999 -9999 -9999 -9999 -9999 -9999 -9999 -9999 -9999 -9999 -9999 -9999 -9999 -9999 -9999 -9999 -9999 -9999 -9999 -9999 -9999 -9999 -9999 -9999 -9999 -9999 -9999 -9999 -9999 -9999 -9999 -9999 -9999 -9999 -9999 -9999 -9999 -9999 -9999 -9999 -9999 -9999 -9999 -9999 -9999 -9999 -9999 -9999 -9999 -9999 -9999 -9999 -9999 -9999 -9999 -9999 -9999 -9999 -9999
-9999 -9999 -9999 -9999 -9999 -9999 -9999 -9999 -9999 -9999 -9999 -9999 -9999 1535.124 1535.145 1535.163 1535.171 1535.197 1535.208 1535.202 1535.172 1535.151 1535.147 1535.13 1535.102 1535.12 1535.107 1535.11 1535.108 1535.125 1535.116 1535.13 1535.125 1535.121 1535.108 1535.091 1535.098 1535.063 1534.975 1534.603 1530.097 1527.291 1526.994 1526.694 1525.485 1524.795 1524.78 1525.187 1526.235 1526.723 1526.888 1526.818 1526.764 1526.708 1526.629 1526.637 1526.613 1526.672 1526.632 1526.603 1526.616 1526.606 1526.581 1526.599 1526.599 1526.605 1526.553 1526.573 1526.601 1526.622 1526.75 1526.672 1526.487 1526.674 1526.758 1526.664 1526.691 1526.726 1526.767 1526.781 1526.711 1527.569 1528.646 1529.824 1530.597 1531.308 1534.33 1534.979 1535.246 1535.029 1534.773 1534.768 1534.804 1534.903 1534.887 1534.552 1533.406 1531.471 1531.745 1532.848 1533.693 1534.036 1534.571 1534.648 1534.794 1534.72 1535.116 1534.849 1534.568 1534.139 1534.125 1533.964 1534.483 1534.394 1534.719 1534.791 1534.801 1534.83 1534.85 1534.826 1534.75 1534.708 1534.745 1534.845 1534.912 1534.799 1534.738 1534.692 1534.702 1534.686 1534.667 1534.665 1534.71 1534.729 1534.764 1534.786 1534.626 1534.599 1534.6 1534.568 1534.582 1534.583 1534.581 1534.588 1534.589 1534.51 1534.478 1534.472 1534.458 1534.548 1534.455 1534.433 1534.427 1534.425 1534.429 1534.442 1534.457 -9999 -9999 -9999 -9999 -9999 -9999 -9999 -9999 -9999 -9999 -9999 -9999 -9999 -9999 -9999 -9999 -9999 -9999 -9999 -9999 -9999 -9999 -9999 -9999 -9999 -9999 -9999 -9999 -9999 -9999 -9999 -9999 -9999 -9999 -9999 -9999 -9999 -9999 -9999 -9999 -9999 -9999 -9999 -9999 -9999 -9999 -9999 -9999 -9999 -9999 -9999 -9999 -9999 -9999 -9999 -9999 -9999 -9999 -9999 -9999 -9999 -9999 -9999 -9999 -9999 -9999 -9999 -9999 -9999 -9999 -9999 -9999 -9999 -9999 -9999 -9999 -9999 -9999 -9999 -9999 -9999 -9999 -9999 -9999 -9999 -9999 -9999 -9999 -9999 -9999 -9999 -9999 -9999 -9999 -9999 -9999 -9999 -9999 -9999 -9999 -9999 -9999 -9999 -9999 -9999 -9999 -9999 -9999 -9999 -9999 -9999 -9999 -9999 -9999 -9999 -9999 -9999 -9999 -9999 -9999 -9999 -9999 -9999 -9999 -9999
-9999 -9999 -9999 -9999 -9999 -9999 -9999 -9999 -9999 -9999 -9999 -9999 -9999 1535.145 1535.172 1535.155 1535.154 1535.178 1535.192 1535.173 1535.161 1535.16 1535.157 1535.117 1535.094 1535.096 1535.084 1535.054 1535.043 1535.111 1535.103 1535.114 1535.116 1535.134 1535.106 1535.105 1535.1 1535.05 1535.035 1534.787 1533.389 1530.132 1528.015 1527.119 1527.125 1526.362 1525.039 1524.766 1524.756 1524.834 1524.97 1525.345 1526.439 1526.745 1526.778 1526.721 1526.67 1526.709 1526.705 1526.648 1526.664 1526.612 1526.6 1526.604 1526.595 1526.567 1526.604 1526.58 1526.616 1526.576 1526.882 1526.81 1526.528 1526.674 1526.78 1526.586 1526.527 1526.622 1526.676 1526.689 1526.744 1526.735 1526.856 1527.56 1528.285 1528.754 1533.22 1534.54 1534.947 1534.824 1534.486 1533.964 1534.762 1534.804 1534.63 1533.777 1530.801 1530.511 1533.504 1533.857 1533.898 1534.2 1534.403 1534.191 1534.462 1534.452 1534.649 1534.614 1534.267 1533.372 1533.665 1534.07 1533.889 1534.278 1534.483 1534.769 1534.801 1534.862 1534.859 1534.806 1534.685 1534.677 1534.75 1534.863 1534.925 1534.71 1534.652 1534.663 1534.672 1534.658 1534.633 1534.646 1534.635 1534.693 1534.718 1534.733 1534.658 1534.6 1534.588 1534.575 1534.589 1534.584 1534.572 1534.573 1534.58 1534.56 1534.487 1534.47 1534.451 1534.467 1534.459 1534.45 1534.431 1534.428 1534.428 1534.437 1534.461 1534.462 -9999 -9999 -9999 -9999 -9999 -9999 -9999 -9999 -9999 -9999 -9999 -9999 -9999 -9999 -9999 -9999 -9999 -9999 -9999 -9999 -9999 -9999 -9999 -9999 -9999 -9999 -9999 -9999 -9999 -9999 -9999 -9999 -9999 -9999 -9999 -9999 -9999 -9999 -9999 -9999 -9999 -9999 -9999 -9999 -9999 -9999 -9999 -9999 -9999 -9999 -9999 -9999 -9999 -9999 -9999 -9999 -9999 -9999 -9999 -9999 -9999 -9999 -9999 -9999 -9999 -9999 -9999 -9999 -9999 -9999 -9999 -9999 -9999 -9999 -9999 -9999 -9999 -9999 -9999 -9999 -9999 -9999 -9999 -9999 -9999 -9999 -9999 -9999 -9999 -9999 -9999 -9999 -9999 -9999 -9999 -9999 -9999 -9999 -9999 -9999 -9999 -9999 -9999 -9999 -9999 -9999 -9999 -9999 -9999 -9999 -9999 -9999 -9999 -9999 -9999 -9999 -9999 -9999 -9999 -9999 -9999 -9999 -9999 -9999
-9999 -9999 -9999 -9999 -9999 -9999 -9999 -9999 -9999 -9999 -9999 -9999 -9999 -9999 1535.163 1535.134 1535.134 1535.153 1535.168 1535.165 1535.142 1535.157 1535.136 1535.1 1535.087 1535.091 1535.085 1535.068 1535.019 1535.088 1535.096 1535.091 1535.107 1535.102 1535.095 1535.089 1535.075 1534.698 1534.75 1534.629 1532.552 1530.04 1528.926 1527.794 1527.439 1527.057 1526.732 1526.027 1525.242 1525.001 1524.905 1524.783 1524.767 1524.764 1524.822 1525.833 1526.586 1526.734 1526.719 1526.703 1526.714 1526.698 1526.65 1526.636 1526.61 1526.6 1526.588 1526.615 1526.623 1526.551 1526.755 1526.85 1526.495 1526.659 1526.834 1526.691 1526.566 1526.738 1526.71 1526.523 1526.642 1526.698 1526.76 1526.914 1527.012 1527.329 1529.203 1532.635 1534.897 1534.75 1534.408 1533.266 1534.559 1534.754 1534.151 1531.352 1529.485 1533.874 1534.939 1534.578 1534.312 1534.313 1534.091 1532.979 1534.009 1534.012 1534.498 1534.398 1534.251 1532.876 1533.342 1533.657 1533.454 1533.844 1534.133 1534.522 1534.731 1534.749 1534.888 1534.703 1534.357 1534.266 1534.582 1534.72 1534.776 1534.665 1534.538 1534.568 1534.669 1534.615 1534.611 1534.596 1534.615 1534.652 1534.661 1534.649 1534.622 1534.609 1534.591 1534.598 1534.602 1534.594 1534.554 1534.549 1534.535 1534.502 1534.492 1534.475 1534.468 1534.474 1534.458 1534.446 1534.441 1534.434 1534.43 1534.436 1534.443 1534.425 1534.422 -9999 -9999 -9999 -9999 -9999 -9999 -9999 -9999 -9999 -9999 -9999 -9999 -9999 -9999 -9999 -9999 -9999 -9999 -9999 -9999 -9999 -9999 -9999 -9999 -9999 -9999 -9999 -9999 -9999 -9999 -9999 -9999 -9999 -9999 -9999 -9999 -9999 -9999 -9999 -9999 -9999 -9999 -9999 -9999 -9999 -9999 -9999 -9999 -9999 -9999 -9999 -9999 -9999 -9999 -9999 -9999 -9999 -9999 -9999 -9999 -9999 -9999 -9999 -9999 -9999 -9999 -9999 -9999 -9999 -9999 -9999 -9999 -9999 -9999 -9999 -9999 -9999 -9999 -9999 -9999 -9999 -9999 -9999 -9999 -9999 -9999 -9999 -9999 -9999 -9999 -9999 -9999 -9999 -9999 -9999 -9999 -9999 -9999 -9999 -9999 -9999 -9999 -9999 -9999 -9999 -9999 -9999 -9999 -9999 -9999 -9999 -9999 -9999 -9999 -9999 -9999 -9999 -9999 -9999 -9999 -9999 -9999 -9999
-9999 -9999 -9999 -9999 -9999 -9999 -9999 -9999 -9999 -9999 -9999 -9999 -9999 -9999 1535.134 1535.12 1535.116 1535.125 1535.141 1535.14 1535.146 1535.121 1535.101 1535.094 1535.088 1535.095 1535.084 1535.062 1535.051 1535.059 1535.067 1535.073 1535.081 1535.084 1535.065 1535.072 1535.048 1534.861 1534.644 1533.261 1531.153 1529.382 1528.481 1528.052 1527.554 1527.32 1527.129 1527.012 1526.87 1526.901 1526.845 1526.738 1526.043 1525.093 1524.755 1524.741 1524.745 1524.741 1524.791 1525.258 1526.15 1526.556 1526.672 1526.712 1526.648 1526.619 1526.572 1526.593 1526.619 1526.568 1526.623 1526.764 1526.637 1526.542 1526.571 1526.516 1526.423 1526.125 1525.818 1525.162 1524.877 1524.882 1525.131 1525.666 1526.664 1526.902 1527.207 1529.235 1532.15 1532.716 1532.161 1531.303 1533.95 1534.354 1533.218 1530.29 1528.988 1534.9 1534.924 1534.659 1534.23 1534.277 1534.039 1532.217 1532.445 1533.577 1534.369 1533.851 1533.968 1532.331 1532.241 1532.603 1532.659 1533.032 1533.279 1533.479 1534.311 1533.77 1534.448 1534.478 1534.097 1532.559 1534.155 1534.474 1534.553 1533.912 1533.438 1533.807 1534.569 1534.564 1534.578 1534.59 1534.592 1534.592 1534.608 1534.639 1534.618 1534.606 1534.601 1534.626 1534.62 1534.575 1534.539 1534.503 1534.497 1534.503 1534.526 1534.482 1534.476 1534.497 1534.465 1534.446 1534.448 1534.439 1534.434 1534.435 1534.42 1534.421 1534.407 1534.411 -9999 -9999 -9999 -9999 -9999 -9999 -9999 -9999 -9999 -9999 -9999 -9999 -9999 -9999 -9999 -9999 -9999 -9999 -9999 -9999 -9999 -9999 -9999 -9999 -9999 -9999 -9999 -9999 -9999 -9999 -9999 -9999 -9999 -9999 -9999 -9999 -9999 -9999 -9999 -9999 -9999 -9999 -9999 -9999 -9999 -9999 -9999 -9999 -9999 -9999 -9999 -9999 -9999 -9999 -9999 -9999 -9999 -9999 -9999 -9999 -9999 -9999 -9999 -9999 -9999 -9999 -9999 -9999 -9999 -9999 -9999 -9999 -9999 -9999 -9999 -9999 -9999 -9999 -9999 -9999 -9999 -9999 -9999 -9999 -9999 -9999 -9999 -9999 -9999 -9999 -9999 -9999 -9999 -9999 -9999 -9999 -9999 -9999 -9999 -9999 -9999 -9999 -9999 -9999 -9999 -9999 -9999 -9999 -9999 -9999 -9999 -9999 -9999 -9999 -9999 -9999 -9999 -9999 -9999 -9999 -9999 -9999
-9999 -9999 -9999 -9999 -9999 -9999 -9999 -9999 -9999 -9999 -9999 -9999 -9999 -9999 1535.125 1535.133 1535.12 1535.132 1535.136 1535.149 1535.146 1535.129 1535.102 1535.09 1535.088 1535.105 1535.093 1535.072 1535.06 1535.07 1535.067 1535.042 1535.041 1535.048 1534.7 1534.999 1535.024 1534.865 1533.724 1531.531 1529.701 1528.776 1528.21 1527.922 1527.598 1527.29 1527.111 1527.026 1526.881 1526.777 1527.042 1527.033 1526.939 1526.916 1526.755 1525.988 1525.276 1524.793 1524.733 1524.724 1524.707 1524.705 1524.707 1524.744 1524.776 1524.798 1525.02 1525.184 1525.243 1525.583 1525.493 1525.608 1525.308 1525.203 1525.132 1524.893 1524.683 1524.597 1524.576 1524.572 1524.562 1524.56 1524.573 1524.593 1524.636 1525.006 1526.618 1526.606 1526.831 1527.522 1529.279 1529.093 1531.231 1533.411 1532.193 1529.94 1530.23 1534.751 1534.828 1534.202 1533.129 1533.286 1533.744 1531.753 1531.609 1532.215 1532.632 1532.588 1531.983 1531.092 1530.961 1531.085 1531.126 1531.247 1531.975 1532.539 1532.575 1532.439 1532.82 1532.389 1532.154 1531.481 1533.09 1533.27 1533.414 1533.249 1533.121 1534.066 1534.52 1534.219 1534.536 1534.581 1534.548 1534.551 1534.596 1534.586 1534.611 1534.618 1534.616 1534.656 1534.642 1534.589 1534.545 1534.492 1534.482 1534.476 1534.484 1534.473 1534.469 1534.479 1534.469 1534.449 1534.446 1534.448 1534.431 1534.433 1534.429 1534.423 1534.42 1534.409 1534.405 -9999 -9999 -9999 -9999 -9999 -9999 -9999 -9999 -9999 -9999 -9999 -9999 -9999 -9999 -9999 -9999 -9999 -9999 -9999 -9999 -9999 -9999 -9999 -9999 -9999 -9999 -9999 -9999 -9999 -9999 -9999 -9999 -9999 -9999 -9999 -9999 -9999 -9999 -9999 -9999 -9999 -9999 -9999 -9999 -9999 -9999 -9999 -9999 -9999 -9999 -9999 -9999 -9999 -9999 -9999 -9999 -9999 -9999 -9999 -9999 -9999 -9999 -9999 -9999 -9999 -9999 -9999 -9999 -9999 -9999 -9999 -9999 -9999 -9999 -9999 -9999 -9999 -9999 -9999 -9999 -9999 -9999 -9999 -9999 -9999 -9999 -9999 -9999 -9999 -9999 -9999 -9999 -9999 -9999 -9999 -9999 -9999 -9999 -9999 -9999 -9999 -9999 -9999 -9999 -9999 -9999 -9999 -9999 -9999 -9999 -9999 -9999 -9999 -9999 -9999 -9999 -9999 -9999 -9999 -9999 -9999
-9999 -9999 -9999 -9999 -9999 -9999 -9999 -9999 -9999 -9999 -9999 -9999 -9999 -9999 1535.108 1535.109 1535.127 1535.127 1535.138 1535.138 1535.134 1535.111 1535.101 1535.096 1535.101 1535.096 1535.092 1535.062 1535.051 1535.068 1535.041 1535.036 1535.028 1535.013 1534.991 1534.507 1534.381 1534.094 1532.476 1530.321 1528.926 1528.454 1528.103 1527.864 1527.63 1527.283 1527.029 1526.944 1526.789 1526.728 1526.821 1527.072 1526.963 1526.918 1527.016 1526.916 1526.819 1526.708 1526.406 1526.033 1525.444 1525.103 1524.834 1524.807 1524.709 1524.67 1524.657 1524.633 1524.625 1524.622 1524.624 1524.62 1524.625 1524.613 1524.627 1524.696 1524.965 1525.125 1525.388 1525.644 1525.862 1525.672 1525.558 1525.066 1524.845 1524.59 1524.787 1525.933 1526.476 1526.774 1526.905 1527.04 1528.48 1530.26 1530.639 1528.904 1530.615 1532.704 1532.837 1532.231 1531.811 1531.989 1532.841 1531.306 1531.082 1531.048 1530.981 1530.704 1530.426 1530.113 1530.209 1530.192 1530.148 1530.217 1530.55 1530.689 1530.747 1530.893 1530.729 1530.713 1530.291 1530.445 1531.352 1532.065 1532.292 1532.916 1533.155 1533.809 1534.462 1533.223 1533.006 1534.431 1534.48 1534.529 1534.548 1534.544 1534.589 1534.617 1534.639 1534.709 1534.709 1534.579 1534.551 1534.511 1534.479 1534.47 1534.47 1534.474 1534.466 1534.474 1534.477 1534.467 1534.464 1534.485 1534.441 1534.457 1534.461 1534.417 1534.414 1534.412 1534.412 1534.431 -9999 -9999 -9999 -9999 -9999 -9999 -9999 -9999 -9999 -9999 -9999 -9999 -9999 -9999 -9999 -9999 -9999 -9999 -9999 -9999 -9999 -9999 -9999 -9999 -9999 -9999 -9999 -9999 -9999 -9999 -9999 -9999 -9999 -9999 -9999 -9999 -9999 -9999 -9999 -9999 -9999 -9999 -9999 -9999 -9999 -9999 -9999 -9999 -9999 -9999 -9999 -9999 -9999 -9999 -9999 -9999 -9999 -9999 -9999 -9999 -9999 -9999 -9999 -9999 -9999 -9999 -9999 -9999 -9999 -9999 -9999 -9999 -9999 -9999 -9999 -9999 -9999 -9999 -9999 -9999 -9999 -9999 -9999 -9999 -9999 -9999 -9999 -9999 -9999 -9999 -9999 -9999 -9999 -9999 -9999 -9999 -9999 -9999 -9999 -9999 -9999 -9999 -9999 -9999 -9999 -9999 -9999 -9999 -9999 -9999 -9999 -9999 -9999 -9999 -9999 -9999 -9999 -9999 -9999 -9999
-9999 -9999 -9999 -9999 -9999 -9999 -9999 -9999 -9999 -9999 -9999 -9999 -9999 -9999 -9999 1535.113 1535.123 1535.131 1535.137 1535.133 1535.128 1535.104 1535.091 1535.095 1535.104 1535.08 1535.05 1535.045 1535.026 1535.02 1535.021 1535.013 1535.025 1534.988 1534.865 1534.927 1534.736 1532.911 1530.952 1529.203 1528.544 1528.242 1527.939 1527.728 1527.562 1527.286 1526.741 1526.594 1526.729 1526.745 1526.723 1526.783 1526.82 1527.103 1527.041 1526.917 1526.86 1526.854 1526.988 1526.904 1526.808 1526.791 1526.907 1526.855 1526.851 1526.718 1526.464 1526.309 1525.965 1525.71 1525.753 1525.595 1525.904 1526.46 1526.675 1526.771 1526.819 1526.843 1526.762 1526.693 1526.641 1526.678 1526.645 1526.646 1526.444 1525.348 1524.63 1524.669 1525.274 1526.563 1526.838 1526.806 1526.758 1527.648 1529.391 1527.616 1528.421 1531.104 1531.254 1531.208 1531.157 1531.176 1530.978 1530.766 1530.644 1530.601 1530.454 1530.195 1529.966 1529.698 1529.618 1529.596 1529.567 1529.545 1529.548 1529.553 1529.591 1529.768 1529.68 1529.832 1529.816 1529.353 1529.64 1529.724 1530.432 1531.545 1532.666 1533.959 1534.171 1533.119 1533.487 1534.293 1534.399 1534.437 1534.53 1534.547 1534.555 1534.619 1534.706 1534.789 1534.713 1534.601 1534.569 1534.504 1534.467 1534.454 1534.457 1534.443 1534.465 1534.475 1534.476 1534.464 1534.468 1534.456 1534.43 1534.423 1534.418 1534.404 1534.396 1534.403 1534.404 1534.425 1534.418 -9999 -9999 -9999 -9999 -9999 -9999 -9999 -9999 -9999 -9999 -9999 -9999 -9999 -9999 -9999 -9999 -9999 -9999 -9999 -9999 -9999 -9999 -9999 -9999 -9999 -9999 -9999 -9999 -9999 -9999 -9999 -9999 -9999 -9999 -9999 -9999 -9999 -9999 -9999 -9999 -9999 -9999 -9999 -9999 -9999 -9999 -9999 -9999 -9999 -9999 -9999 -9999 -9999 -9999 -9999 -9999 -9999 -9999 -9999 -9999 -9999 -9999 -9999 -9999 -9999 -9999 -9999 -9999 -9999 -9999 -9999 -9999 -9999 -9999 -9999 -9999 -9999 -9999 -9999 -9999 -9999 -9999 -9999 -9999 -9999 -9999 -9999 -9999 -9999 -9999 -9999 -9999 -9999 -9999 -9999 -9999 -9999 -9999 -9999 -9999 -9999 -9999 -9999 -9999 -9999 -9999 -9999 -9999 -9999 -9999 -9999 -9999 -9999 -9999 -9999 -9999 -9999 -9999 -9999
-9999 -9999 -9999 -9999 -9999 -9999 -9999 -9999 -9999 -9999 -9999 -9999 -9999 -9999 -9999 1535.131 1535.134 1535.127 1535.13 1535.119 1535.101 1535.096 1535.084 1535.089 1535.095 1535.044 1535.034 1535.038 1535 1535.017 1535.003 1535.009 1534.98 1534.776 1534.705 1534.575 1534.034 1531.693 1529.887 1528.727 1528.29 1528.002 1527.812 1527.7 1527.598 1527.311 1526.593 1526.728 1526.951 1526.957 1526.685 1526.689 1526.704 1526.943 1527.167 1526.98 1526.845 1526.952 1527.052 1527.027 1526.887 1526.801 1526.881 1526.949 1526.967 1526.928 1526.941 1526.638 1526.73 1526.865 1526.865 1526.719 1526.832 1526.833 1526.848 1526.853 1526.811 1526.804 1526.822 1526.784 1526.728 1526.609 1526.591 1526.692 1526.656 1526.586 1525.934 1524.563 1524.553 1524.858 1526.474 1526.701 1526.722 1526.74 1527.016 1527.142 1528.892 1530.731 1530.892 1530.651 1530.531 1530.561 1530.506 1530.414 1530.348 1530.223 1529.966 1529.811 1529.627 1529.416 1529.306 1529.283 1529.224 1529.154 1529.035 1529.031 1529.03 1528.911 1529.014 1529.16 1529.026 1528.86 1528.844 1528.892 1529.146 1529.277 1530.618 1532.629 1532.794 1533.116 1534.288 1533.519 1533.212 1533.899 1534.491 1534.547 1534.56 1534.604 1534.734 1534.707 1534.661 1534.641 1534.651 1534.54 1534.475 1534.458 1534.456 1534.445 1534.471 1534.475 1534.475 1534.485 1534.494 1534.463 1534.418 1534.406 1534.398 1534.394 1534.393 1534.396 1534.396 1534.408 1534.409 1534.413 -9999 -9999 -9999 -9999 -9999 -9999 -9999 -9999 -9999 -9999 -9999 -9999 -9999 -9999 -9999 -9999 -9999 -9999 -9999 -9999 -9999 -9999 -9999 -9999 -9999 -9999 -9999 -9999 -9999 -9999 -9999 -9999 -9999 -9999 -9999 -9999 -9999 -9999 -9999 -9999 -9999 -9999 -9999 -9999 -9999 -9999 -9999 -9999 -9999 -9999 -9999 -9999 -9999 -9999 -9999 -9999 -9999 -9999 -9999 -9999 -9999 -9999 -9999 -9999 -9999 -9999 -9999 -9999 -9999 -9999 -9999 -9999 -9999 -9999 -9999 -9999 -9999 -9999 -9999 -9999 -9999 -9999 -9999 -9999 -9999 -9999 -9999 -9999 -9999 -9999 -9999 -9999 -9999 -9999 -9999 -9999 -9999 -9999 -9999 -9999 -9999 -9999 -9999 -9999 -9999 -9999 -9999 -9999 -9999 -9999 -9999 -9999 -9999 -9999 -9999 -9999 -9999 -9999
-9999 -9999 -9999 -9999 -9999 -9999 -9999 -9999 -9999 -9999 -9999 -9999 -9999 -9999 -9999 1535.139 1535.127 1535.141 1535.13 1535.106 1535.081 1535.086 1535.063 1535.046 1535.058 1535.02 1534.99 1534.977 1534.969 1534.978 1535.009 1534.993 1534.987 1534.971 1534.384 1533.877 1532.154 1530.267 1528.981 1528.413 1528.111 1527.906 1527.786 1527.668 1527.583 1527.294 1526.651 1526.921 1526.966 1526.985 1526.891 1526.668 1526.619 1526.74 1527.043 1526.991 1526.799 1526.743 1526.982 1527.002 1526.92 1526.725 1526.963 1526.967 1526.918 1526.907 1526.904 1526.892 1526.633 1526.823 1526.777 1526.743 1526.917 1526.844 1526.816 1526.776 1526.802 1526.745 1526.744 1526.711 1526.713 1526.724 1526.584 1526.575 1526.648 1526.68 1526.669 1526.435 1524.56 1524.53 1524.607 1525.834 1526.673 1526.772 1526.879 1526.958 1528.802 1529.748 1529.479 1529.602 1529.787 1529.846 1530.12 1530.127 1530.034 1529.938 1529.739 1529.554 1529.316 1529.112 1529.044 1529.019 1528.954 1528.873 1528.741 1528.679 1528.554 1528.494 1528.417 1528.403 1528.437 1528.483 1528.511 1528.553 1528.558 1528.64 1528.76 1529.493 1530.758 1532.765 1534.12 1533.383 1532.837 1534.184 1534.533 1534.56 1534.564 1534.583 1534.637 1534.646 1534.658 1534.64 1534.617 1534.548 1534.472 1534.468 1534.465 1534.483 1534.484 1534.479 1534.47 1534.449 1534.454 1534.435 1534.401 1534.396 1534.397 1534.394 1534.381 1534.389 1534.386 1534.414 1534.403 1534.394 1534.387 -9999 -9999 -9999 -9999 -9999 -9999 -9999 -9999 -9999 -9999 -9999 -9999 -9999 -9999 -9999 -9999 -9999 -9999 -9999 -9999 -9999 -9999 -9999 -9999 -9999 -9999 -9999 -9999 -9999 -9999 -9999 -9999 -9999 -9999 -9999 -9999 -9999 -9999 -9999 -9999 -9999 -9999 -9999 -9999 -9999 -9999 -9999 -9999 -9999 -9999 -9999 -9999 -9999 -9999 -9999 -9999 -9999 -9999 -9999 -9999 -9999 -9999 -9999 -9999 -9999 -9999 -9999 -9999 -9999 -9999 -9999 -9999 -9999 -9999 -9999 -9999 -9999 -9999 -9999 -9999 -9999 -9999 -9999 -9999 -9999 -9999 -9999 -9999 -9999 -9999 -9999 -9999 -9999 -9999 -9999 -9999 -9999 -9999 -9999 -9999 -9999 -9999 -9999 -9999 -9999 -9999 -9999 -9999 -9999 -9999 -9999 -9999 -9999 -9999 -9999 -9999 -9999
-9999 -9999 -9999 -9999 -9999 -9999 -9999 -9999 -9999 -9999 -9999 -9999 -9999 -9999 -9999 1535.146 1535.154 1535.14 1535.142 1535.111 1535.08 1535.09 1535.044 1535.026 1535.005 1534.982 1534.964 1534.967 1534.959 1534.988 1534.994 1534.995 1534.981 1534.985 1534.883 1533.339 1531.212 1529.404 1528.646 1528.179 1527.946 1527.778 1527.673 1527.647 1527.564 1527.298 1526.95 1526.957 1526.911 1526.938 1526.927 1526.874 1526.657 1526.636 1526.867 1526.927 1526.888 1526.757 1526.883 1526.94 1526.945 1526.736 1526.765 1526.935 1526.89 1526.877 1526.853 1526.788 1526.991 1526.658 1526.633 1526.772 1526.918 1526.849 1526.829 1526.823 1526.806 1526.814 1526.785 1526.743 1526.732 1526.73 1526.716 1526.592 1526.576 1526.62 1526.633 1526.56 1526.5 1524.755 1524.518 1524.599 1525.109 1526.612 1526.838 1526.841 1526.803 1527.592 1527.913 1528.775 1528.369 1529.221 1529.777 1529.829 1529.745 1529.683 1529.54 1529.296 1529.06 1528.865 1528.851 1528.783 1528.692 1528.613 1528.502 1528.448 1528.386 1528.247 1528.179 1528.123 1528.178 1528.29 1528.265 1528.259 1528.306 1528.354 1528.429 1528.642 1528.9 1531.002 1532.424 1531.727 1532.974 1533.757 1534.557 1534.57 1534.576 1534.566 1534.586 1534.602 1534.63 1534.595 1534.549 1534.517 1534.487 1534.476 1534.481 1534.484 1534.481 1534.468 1534.453 1534.439 1534.425 1534.412 1534.402 1534.397 1534.399 1534.398 1534.394 1534.379 1534.368 1534.385 1534.394 1534.384 1534.383 1534.372 -9999 -9999 -9999 -9999 -9999 -9999 -9999 -9999 -9999 -9999 -9999 -9999 -9999 -9999 -9999 -9999 -9999 -9999 -9999 -9999 -9999 -9999 -9999 -9999 -9999 -9999 -9999 -9999 -9999 -9999 -9999 -9999 -9999 -9999 -9999 -9999 -9999 -9999 -9999 -9999 -9999 -9999 -9999 -9999 -9999 -9999 -9999 -9999 -9999 -9999 -9999 -9999 -9999 -9999 -9999 -9999 -9999 -9999 -9999 -9999 -9999 -9999 -9999 -9999 -9999 -9999 -9999 -9999 -9999 -9999 -9999 -9999 -9999 -9999 -9999 -9999 -9999 -9999 -9999 -9999 -9999 -9999 -9999 -9999 -9999 -9999 -9999 -9999 -9999 -9999 -9999 -9999 -9999 -9999 -9999 -9999 -9999 -9999 -9999 -9999 -9999 -9999 -9999 -9999 -9999 -9999 -9999 -9999 -9999 -9999 -9999 -9999 -9999 -9999 -9999 -9999
-9999 -9999 -9999 -9999 -9999 -9999 -9999 -9999 -9999 -9999 -9999 -9999 -9999 -9999 -9999 1535.145 1535.15 1535.15 1535.15 1535.107 1535.081 1535.086 1535.051 1535.002 1534.979 1534.968 1534.955 1534.951 1534.968 1534.991 1534.978 1534.979 1534.579 1534.922 1534.917 1532.474 1530.276 1528.827 1528.279 1528.014 1527.829 1527.722 1527.596 1527.586 1527.516 1527.236 1527.193 1527.032 1526.916 1526.844 1526.857 1526.804 1526.821 1526.653 1526.605 1526.828 1526.841 1526.878 1527.023 1526.855 1526.895 1527.001 1526.72 1526.836 1526.871 1526.789 1526.802 1526.849 1526.959 1526.862 1526.569 1526.719 1526.797 1526.88 1526.775 1526.778 1526.774 1526.767 1526.762 1526.686 1526.673 1526.693 1526.661 1526.714 1526.596 1526.524 1526.54 1526.61 1526.596 1526.602 1524.896 1524.518 1524.564 1524.766 1526.492 1526.737 1526.579 1526.592 1527.448 1527.516 1527.664 1528.477 1528.969 1529.243 1529.27 1529.451 1529.361 1529.112 1528.821 1528.665 1528.585 1528.57 1528.503 1528.366 1528.293 1528.253 1528.123 1528.014 1527.938 1527.909 1527.951 1528.042 1528.031 1528.047 1528.102 1528.173 1528.212 1528.399 1528.561 1528.91 1529.768 1531.058 1533.558 1534.443 1534.521 1534.499 1534.494 1534.571 1534.606 1534.589 1534.582 1534.561 1534.526 1534.508 1534.496 1534.5 1534.512 1534.495 1534.481 1534.459 1534.463 1534.427 1534.414 1534.401 1534.395 1534.394 1534.396 1534.394 1534.381 1534.371 1534.358 1534.374 1534.374 1534.376 1534.37 1534.371 1534.364 -9999 -9999 -9999 -9999 -9999 -9999 -9999 -9999 -9999 -9999 -9999 -9999 -9999 -9999 -9999 -9999 -9999 -9999 -9999 -9999 -9999 -9999 -9999 -9999 -9999 -9999 -9999 -9999 -9999 -9999 -9999 -9999 -9999 -9999 -9999 -9999 -9999 -9999 -9999 -9999 -9999 -9999 -9999 -9999 -9999 -9999 -9999 -9999 -9999 -9999 -9999 -9999 -9999 -9999 -9999 -9999 -9999 -9999 -9999 -9999 -9999 -9999 -9999 -9999 -9999 -9999 -9999 -9999 -9999 -9999 -9999 -9999 -9999 -9999 -9999 -9999 -9999 -9999 -9999 -9999 -9999 -9999 -9999 -9999 -9999 -9999 -9999 -9999 -9999 -9999 -9999 -9999 -9999 -9999 -9999 -9999 -9999 -9999 -9999 -9999 -9999 -9999 -9999 -9999 -9999 -9999 -9999 -9999 -9999 -9999 -9999 -9999 -9999 -9999 -9999
-9999 -9999 -9999 -9999 -9999 -9999 -9999 -9999 -9999 -9999 -9999 -9999 -9999 -9999 -9999 -9999 1535.159 1535.151 1535.129 1535.087 1535.076 1535.021 1535.013 1535.013 1534.984 1534.959 1534.952 1534.965 1534.979 1534.96 1534.965 1534.868 1534.278 1534.692 1533.942 1531.165 1529.416 1528.566 1528.037 1527.823 1527.701 1527.612 1527.527 1527.492 1527.313 1527.234 1527.177 1527.065 1526.9 1526.864 1526.891 1526.765 1526.903 1526.82 1526.631 1526.582 1526.593 1526.72 1527.036 1526.904 1526.828 1527.027 1526.788 1526.699 1526.887 1526.652 1526.747 1526.796 1526.834 1526.813 1526.781 1526.594 1526.7 1526.777 1526.747 1526.778 1526.665 1526.709 1526.732 1526.74 1526.691 1526.67 1526.638 1526.606 1526.612 1526.63 1526.573 1526.547 1526.59 1526.63 1526.657 1525.44 1524.51 1524.549 1524.705 1526.201 1526.599 1526.624 1526.598 1526.748 1526.891 1527.518 1528.302 1528.422 1528.62 1529.079 1529.125 1528.888 1528.621 1528.446 1528.368 1528.332 1528.267 1528.16 1528.136 1528.096 1528.018 1527.814 1527.719 1527.724 1527.749 1527.809 1527.861 1527.882 1527.933 1527.999 1528.09 1528.235 1528.345 1528.485 1528.815 1530.679 1532.53 1534.028 1534.417 1533.557 1533.631 1534.45 1534.59 1534.56 1534.601 1534.539 1534.521 1534.499 1534.495 1534.519 1534.506 1534.519 1534.52 1534.467 1534.449 1534.441 1534.422 1534.408 1534.395 1534.396 1534.386 1534.377 1534.359 1534.357 1534.356 1534.35 1534.36 1534.365 1534.369 1534.361 1534.349 1534.362 -9999 -9999 -9999 -9999 -9999 -9999 -9999 -9999 -9999 -9999 -9999 -9999 -9999 -9999 -9999 -9999 -9999 -9999 -9999 -9999 -9999 -9999 -9999 -9999 -9999 -9999 -9999 -9999 -9999 -9999 -9999 -9999 -9999 -9999 -9999 -9999 -9999 -9999 -9999 -9999 -9999 -9999 -9999 -9999 -9999 -9999 -9999 -9999 -9999 -9999 -9999 -9999 -9999 -9999 -9999 -9999 -9999 -9999 -9999 -9999 -9999 -9999 -9999 -9999 -9999 -9999 -9999 -9999 -9999 -9999 -9999 -9999 -9999 -9999 -9999 -9999 -9999 -9999 -9999 -9999 -9999 -9999 -9999 -9999 -9999 -9999 -9999 -9999 -9999 -9999 -9999 -9999 -9999 -9999 -9999 -9999 -9999 -9999 -9999 -9999 -9999 -9999 -9999 -9999 -9999 -9999 -9999 -9999 -9999 -9999 -9999 -9999 -9999 -9999
-9999 -9999 -9999 -9999 -9999 -9999 -9999 -9999 -9999 -9999 -9999 -9999 -9999 -9999 -9999 -9999 1535.171 1535.156 1535.115 1535.079 1535.03 1535.007 1535.001 1535.003 1534.993 1534.965 1534.964 1534.951 1534.96 1534.951 1534.947 1534.846 1534.631 1534.365 1532.887 1530.39 1529.094 1528.508 1527.953 1527.733 1527.583 1527.502 1527.47 1527.401 1527.342 1527.249 1527.181 1527.069 1526.975 1526.926 1526.778 1526.885 1526.893 1526.859 1526.79 1526.578 1526.519 1526.596 1526.975 1526.995 1526.852 1526.865 1526.908 1526.716 1526.763 1526.762 1526.797 1526.786 1526.794 1526.731 1526.793 1526.566 1526.555 1526.644 1526.737 1526.717 1526.697 1526.644 1526.636 1526.652 1526.672 1526.65 1526.681 1526.604 1526.631 1526.693 1526.661 1526.573 1526.617 1526.583 1526.608 1526.641 1525.54 1524.505 1524.516 1524.625 1525.406 1526.704 1526.591 1526.6 1526.591 1526.957 1527.252 1527.886 1528.235 1528.587 1528.798 1528.665 1528.438 1528.234 1528.158 1528.15 1528.029 1528.009 1527.959 1527.91 1527.867 1527.649 1527.507 1527.518 1527.581 1527.591 1527.66 1527.749 1527.84 1527.9 1527.992 1528.114 1528.17 1528.346 1528.542 1529.342 1530.933 1532.514 1533.521 1533.157 1533.548 1534.466 1534.51 1534.529 1534.617 1534.515 1534.521 1534.505 1534.501 1534.499 1534.499 1534.568 1534.542 1534.483 1534.452 1534.449 1534.437 1534.392 1534.391 1534.39 1534.391 1534.368 1534.345 1534.352 1534.34 1534.348 1534.345 1534.353 1534.346 1534.347 1534.341 1534.342 1534.336 -9999 -9999 -9999 -9999 -9999 -9999 -9999 -9999 -9999 -9999 -9999 -9999 -9999 -9999 -9999 -9999 -9999 -9999 -9999 -9999 -9999 -9999 -9999 -9999 -9999 -9999 -9999 -9999 -9999 -9999 -9999 -9999 -9999 -9999 -9999 -9999 -9999 -9999 -9999 -9999 -9999 -9999 -9999 -9999 -9999 -9999 -9999 -9999 -9999 -9999 -9999 -9999 -9999 -9999 -9999 -9999 -9999 -9999 -9999 -9999 -9999 -9999 -9999 -9999 -9999 -9999 -9999 -9999 -9999 -9999 -9999 -9999 -9999 -9999 -9999 -9999 -9999 -9999 -9999 -9999 -9999 -9999 -9999 -9999 -9999 -9999 -9999 -9999 -9999 -9999 -9999 -9999 -9999 -9999 -9999 -9999 -9999 -9999 -9999 -9999 -9999 -9999 -9999 -9999 -9999 -9999 -9999 -9999 -9999 -9999 -9999 -9999 -9999
-9999 -9999 -9999 -9999 -9999 -9999 -9999 -9999 -9999 -9999 -9999 -9999 -9999 -9999 -9999 -9999 1535.168 1535.15 1535.1 1535.059 1535.035 1535.01 1534.973 1534.979 1534.979 1534.976 1534.971 1534.957 1534.934 1534.845 1534.9 1534.808 1534.759 1534.211 1532.129 1529.586 1528.829 1528.259 1527.758 1527.608 1527.498 1527.42 1527.413 1527.424 1527.397 1527.244 1527.184 1527.109 1527.028 1526.913 1526.784 1526.801 1526.88 1526.841 1526.796 1526.682 1526.508 1526.48 1526.977 1526.925 1526.785 1526.803 1526.915 1526.75 1526.673 1526.809 1526.783 1526.732 1526.702 1526.651 1526.704 1526.722 1526.734 1526.554 1526.526 1526.678 1526.768 1526.709 1526.718 1526.736 1526.689 1526.69 1526.705 1526.665 1526.591 1526.631 1526.625 1526.616 1526.538 1526.544 1526.639 1526.641 1526.665 1525.947 1524.505 1524.493 1524.616 1525.026 1526.515 1526.595 1526.6 1526.542 1526.635 1527.703 1527.718 1528.36 1528.515 1528.237 1528.253 1528.036 1527.972 1527.981 1527.907 1527.825 1527.828 1527.773 1527.681 1527.561 1527.444 1527.431 1527.466 1527.478 1527.555 1527.624 1527.741 1527.816 1527.911 1527.991 1528.01 1528.157 1528.271 1528.465 1528.913 1530.559 1531.996 1532.493 1532.924 1534.15 1534.483 1534.557 1534.529 1534.518 1534.515 1534.51 1534.505 1534.49 1534.515 1534.557 1534.527 1534.481 1534.448 1534.427 1534.407 1534.393 1534.378 1534.371 1534.375 1534.356 1534.352 1534.352 1534.34 1534.353 1534.343 1534.342 1534.335 1534.352 1534.357 1534.343 1534.335 1534.353 -9999 -9999 -9999 -9999 -9999 -9999 -9999 -9999 -9999 -9999 -9999 -9999 -9999 -9999 -9999 -9999 -9999 -9999 -9999 -9999 -9999 -9999 -9999 -9999 -9999 -9999 -9999 -9999 -9999 -9999 -9999 -9999 -9999 -9999 -9999 -9999 -9999 -9999 -9999 -9999 -9999 -9999 -9999 -9999 -9999 -9999 -9999 -9999 -9999 -9999 -9999 -9999 -9999 -9999 -9999 -9999 -9999 -9999 -9999 -9999 -9999 -9999 -9999 -9999 -9999 -9999 -9999 -9999 -9999 -9999 -9999 -9999 -9999 -9999 -9999 -9999 -9999 -9999 -9999 -9999 -9999 -9999 -9999 -9999 -9999 -9999 -9999 -9999 -9999 -9999 -9999 -9999 -9999 -9999 -9999 -9999 -9999 -9999 -9999 -9999 -9999 -9999 -9999 -9999 -9999 -9999 -9999 -9999 -9999 -9999 -9999 -9999
-9999 -9999 -9999 -9999 -9999 -9999 -9999 -9999 -9999 -9999 -9999 -9999 -9999 -9999 -9999 -9999 1535.145 1535.145 1535.089 1535.045 1535.005 1534.962 1534.955 1534.961 1534.963 1534.973 1534.977 1534.96 1534.814 1534.353 1534.788 1534.302 1534.818 1534.697 1531.558 1529.175 1528.546 1527.99 1527.63 1527.498 1527.43 1527.395 1527.401 1527.431 1527.443 1527.281 1527.209 1527.197 1527.157 1527.041 1526.847 1526.827 1526.888 1526.78 1526.725 1526.781 1526.625 1526.416 1526.557 1526.96 1526.845 1526.764 1526.844 1526.92 1526.682 1526.827 1526.859 1526.88 1526.733 1526.639 1526.622 1526.752 1526.824 1526.727 1526.672 1526.424 1526.779 1526.735 1526.727 1526.692 1526.734 1526.709 1526.663 1526.611 1526.59 1526.57 1526.587 1526.594 1526.572 1526.537 1526.556 1526.566 1526.571 1526.675 1526.464 1524.594 1524.484 1524.529 1524.761 1526.347 1526.632 1526.632 1526.539 1526.634 1527.547 1528.067 1527.874 1527.767 1527.844 1527.783 1527.799 1527.776 1527.721 1527.684 1527.691 1527.631 1527.636 1527.485 1527.432 1527.405 1527.417 1527.444 1527.474 1527.57 1527.675 1527.724 1527.796 1527.876 1527.921 1527.978 1528.11 1528.298 1528.553 1528.864 1530.459 1531.457 1532.71 1534.255 1534.421 1534.504 1534.518 1534.503 1534.494 1534.489 1534.488 1534.498 1534.477 1534.463 1534.517 1534.46 1534.433 1534.406 1534.397 1534.384 1534.376 1534.359 1534.362 1534.352 1534.353 1534.352 1534.343 1534.337 1534.331 1534.345 1534.337 1534.331 1534.352 1534.347 1534.328 1534.318 1534.312 -9999 -9999 -9999 -9999 -9999 -9999 -9999 -9999 -9999 -9999 -9999 -9999 -9999 -9999 -9999 -9999 -9999 -9999 -9999 -9999 -9999 -9999 -9999 -9999 -9999 -9999 -9999 -9999 -9999 -9999 -9999 -9999 -9999 -9999 -9999 -9999 -9999 -9999 -9999 -9999 -9999 -9999 -9999 -9999 -9999 -9999 -9999 -9999 -9999 -9999 -9999 -9999 -9999 -9999 -9999 -9999 -9999 -9999 -9999 -9999 -9999 -9999 -9999 -9999 -9999 -9999 -9999 -9999 -9999 -9999 -9999 -9999 -9999 -9999 -9999 -9999 -9999 -9999 -9999 -9999 -9999 -9999 -9999 -9999 -9999 -9999 -9999 -9999 -9999 -9999 -9999 -9999 -9999 -9999 -9999 -9999 -9999 -9999 -9999 -9999 -9999 -9999 -9999 -9999 -9999 -9999 -9999 -9999 -9999 -9999 -9999
-9999 -9999 -9999 -9999 -9999 -9999 -9999 -9999 -9999 -9999 -9999 -9999 -9999 -9999 -9999 -9999 -9999 1535.111 1535.062 1535.025 1535.003 1534.963 1534.94 1534.943 1534.963 1534.965 1534.983 1534.972 1534.934 1534.714 1534.329 1534.191 1534.73 1533.595 1530.731 1528.853 1528.298 1527.761 1527.571 1527.447 1527.404 1527.385 1527.391 1527.434 1527.362 1527.27 1527.228 1527.287 1527.371 1527.263 1526.92 1526.889 1526.963 1526.845 1526.841 1526.777 1526.753 1526.536 1526.516 1526.874 1526.954 1526.872 1526.734 1526.835 1526.748 1526.646 1526.788 1526.823 1526.744 1526.604 1526.567 1526.829 1527.075 1526.814 1526.747 1526.619 1526.489 1526.7 1526.737 1526.736 1526.652 1526.648 1526.667 1526.609 1526.545 1526.561 1526.527 1526.538 1526.568 1526.563 1526.522 1526.58 1526.56 1526.575 1526.631 1526.577 1525.512 1524.488 1524.484 1524.597 1526.06 1526.684 1526.627 1526.527 1526.878 1526.966 1527.163 1527.583 1527.644 1527.652 1527.651 1527.626 1527.57 1527.575 1527.559 1527.551 1527.53 1527.431 1527.408 1527.404 1527.405 1527.431 1527.479 1527.53 1527.571 1527.651 1527.702 1527.779 1527.82 1527.901 1528.038 1528.207 1528.383 1528.604 1528.939 1530.338 1532.841 1533.926 1533.842 1534.415 1534.45 1534.473 1534.475 1534.466 1534.463 1534.496 1534.436 1534.416 1534.469 1534.44 1534.42 1534.392 1534.389 1534.382 1534.364 1534.362 1534.356 1534.36 1534.356 1534.352 1534.347 1534.349 1534.343 1534.345 1534.343 1534.349 1534.337 1534.317 1534.297 1534.308 1534.311 1534.302 -9999 -9999 -9999 -9999 -9999 -9999 -9999 -9999 -9999 -9999 -9999 -9999 -9999 -9999 -9999 -9999 -9999 -9999 -9999 -9999 -9999 -9999 -9999 -9999 -9999 -9999 -9999 -9999 -9999 -9999 -9999 -9999 -9999 -9999 -9999 -9999 -9999 -9999 -9999 -9999 -9999 -9999 -9999 -9999 -9999 -9999 -9999 -9999 -9999 -9999 -9999 -9999 -9999 -9999 -9999 -9999 -9999 -9999 -9999 -9999 -9999 -9999 -9999 -9999 -9999 -9999 -9999 -9999 -9999 -9999 -9999 -9999 -9999 -9999 -9999 -9999 -9999 -9999 -9999 -9999 -9999 -9999 -9999 -9999 -9999 -9999 -9999 -9999 -9999 -9999 -9999 -9999 -9999 -9999 -9999 -9999 -9999 -9999 -9999 -9999 -9999 -9999 -9999 -9999 -9999 -9999 -9999 -9999 -9999 -9999
-9999 -9999 -9999 -9999 -9999 -9999 -9999 -9999 -9999 -9999 -9999 -9999 -9999 -9999 -9999 -9999 -9999 1535.067 1535.019 1535.001 1534.979 1534.958 1534.936 1534.933 1534.94 1534.932 1534.96 1534.969 1534.971 1534.935 1534.852 1534.203 1534.569 1532.144 1529.848 1528.712 1528.191 1527.774 1527.571 1527.456 1527.387 1527.383 1527.387 1527.385 1527.365 1527.253 1527.289 1527.284 1527.334 1527.287 1527.099 1526.917 1526.912 1526.941 1526.939 1526.77 1526.739 1526.774 1526.537 1526.478 1526.933 1526.863 1526.772 1526.763 1526.782 1526.635 1526.731 1526.754 1526.733 1526.748 1526.68 1526.709 1526.92 1526.666 1526.688 1526.709 1526.597 1526.406 1526.668 1526.702 1526.675 1526.628 1526.661 1526.583 1526.501 1526.476 1526.493 1526.535 1526.512 1526.555 1526.495 1526.557 1526.514 1526.519 1526.564 1526.596 1526.605 1526.181 1524.88 1524.479 1524.497 1525.383 1526.708 1526.557 1526.478 1526.468 1526.529 1527.012 1527.294 1527.489 1527.556 1527.484 1527.323 1527.442 1527.434 1527.411 1527.429 1527.408 1527.418 1527.425 1527.429 1527.436 1527.476 1527.505 1527.549 1527.587 1527.636 1527.719 1527.801 1527.883 1527.97 1528.137 1528.294 1528.475 1528.73 1529.07 1531.234 1533.041 1533.863 1534.067 1534.407 1534.401 1534.41 1534.424 1534.429 1534.409 1534.38 1534.36 1534.376 1534.377 1534.369 1534.376 1534.382 1534.373 1534.351 1534.337 1534.349 1534.357 1534.35 1534.347 1534.339 1534.355 1534.349 1534.344 1534.334 1534.344 1534.331 1534.318 1534.301 1534.294 1534.298 1534.295 1534.288 -9999 -9999 -9999 -9999 -9999 -9999 -9999 -9999 -9999 -9999 -9999 -9999 -9999 -9999 -9999 -9999 -9999 -9999 -9999 -9999 -9999 -9999 -9999 -9999 -9999 -9999 -9999 -9999 -9999 -9999 -9999 -9999 -9999 -9999 -9999 -9999 -9999 -9999 -9999 -9999 -9999 -9999 -9999 -9999 -9999 -9999 -9999 -9999 -9999 -9999 -9999 -9999 -9999 -9999 -9999 -9999 -9999 -9999 -9999 -9999 -9999 -9999 -9999 -9999 -9999 -9999 -9999 -9999 -9999 -9999 -9999 -9999 -9999 -9999 -9999 -9999 -9999 -9999 -9999 -9999 -9999 -9999 -9999 -9999 -9999 -9999 -9999 -9999 -9999 -9999 -9999 -9999 -9999 -9999 -9999 -9999 -9999 -9999 -9999 -9999 -9999 -9999 -9999 -9999 -9999 -9999 -9999 -9999 -9999
-9999 -9999 -9999 -9999 -9999 -9999 -9999 -9999 -9999 -9999 -9999 -9999 -9999 -9999 -9999 -9999 -9999 1535.034 1534.997 1534.973 1534.966 1534.927 1534.912 1534.902 1534.893 1534.895 1534.899 1534.912 1534.923 1534.898 1534.86 1534.821 1534.133 1531.27 1529.216 1528.624 1528.122 1527.847 1527.598 1527.423 1527.383 1527.366 1527.382 1527.355 1527.362 1527.245 1527.344 1527.283 1527.329 1527.331 1527.215 1526.902 1526.879 1527.011 1526.967 1526.806 1526.715 1526.735 1526.672 1526.445 1526.816 1526.74 1526.803 1526.761 1526.752 1526.63 1526.706 1526.754 1526.75 1526.801 1526.754 1526.579 1526.652 1526.591 1526.589 1526.647 1526.673 1526.522 1526.509 1526.733 1526.651 1526.605 1526.627 1526.566 1526.517 1526.463 1526.39 1526.403 1526.405 1526.531 1526.469 1526.525 1526.505 1526.473 1526.576 1526.583 1526.611 1526.644 1526.215 1525.49 1524.524 1524.463 1525.223 1526.591 1526.562 1526.498 1526.458 1526.427 1526.475 1527.362 1527.36 1527.306 1526.647 1527.406 1527.378 1527.32 1527.391 1527.389 1527.397 1527.425 1527.42 1527.427 1527.455 1527.505 1527.522 1527.581 1527.647 1527.741 1527.809 1527.894 1527.984 1528.091 1528.217 1528.364 1528.546 1528.869 1529.269 1531.982 1533.697 1533.208 1534.088 1533.897 1533.559 1534.39 1534.37 1534.333 1534.32 1534.288 1534.295 1534.326 1534.351 1534.387 1534.389 1534.396 1534.354 1534.352 1534.344 1534.341 1534.344 1534.339 1534.337 1534.338 1534.349 1534.346 1534.353 1534.33 1534.317 1534.302 1534.3 1534.29 1534.286 1534.267 1534.263 1534.259 -9999 -9999 -9999 -9999 -9999 -9999 -9999 -9999 -9999 -9999 -9999 -9999 -9999 -9999 -9999 -9999 -9999 -9999 -9999 -9999 -9999 -9999 -9999 -9999 -9999 -9999 -9999 -9999 -9999 -9999 -9999 -9999 -9999 -9999 -9999 -9999 -9999 -9999 -9999 -9999 -9999 -9999 -9999 -9999 -9999 -9999 -9999 -9999 -9999 -9999 -9999 -9999 -9999 -9999 -9999 -9999 -9999 -9999 -9999 -9999 -9999 -9999 -9999 -9999 -9999 -9999 -9999 -9999 -9999 -9999 -9999 -9999 -9999 -9999 -9999 -9999 -9999 -9999 -9999 -9999 -9999 -9999 -9999 -9999 -9999 -9999 -9999 -9999 -9999 -9999 -9999 -9999 -9999 -9999 -9999 -9999 -9999 -9999 -9999 -9999 -9999 -9999 -9999 -9999 -9999 -9999 -9999 -9999
-9999 -9999 -9999 -9999 -9999 -9999 -9999 -9999 -9999 -9999 -9999 -9999 -9999 -9999 -9999 -9999 -9999 1535 1534.984 1534.969 1534.91 1534.907 1534.897 1534.897 1534.884 1534.872 1534.869 1534.876 1534.871 1534.854 1534.448 1534.553 1533.381 1531.115 1528.883 1528.386 1527.99 1527.757 1527.578 1527.408 1527.38 1527.361 1527.375 1527.351 1527.325 1527.228 1527.32 1527.297 1527.297 1527.315 1527.221 1526.913 1526.894 1527.042 1527.039 1526.99 1526.82 1526.776 1526.69 1526.476 1526.449 1526.771 1526.957 1526.884 1526.74 1526.705 1526.672 1526.788 1526.74 1526.708 1526.84 1526.781 1526.662 1526.63 1526.602 1526.649 1526.618 1526.613 1526.58 1526.487 1526.66 1526.654 1526.634 1526.629 1526.638 1526.6 1526.476 1526.448 1526.49 1526.401 1526.389 1526.433 1526.438 1526.44 1526.499 1526.539 1526.573 1526.62 1526.615 1526.298 1525.83 1524.697 1524.465 1524.944 1526.596 1526.555 1526.449 1526.365 1526.208 1526.927 1527.282 1526.495 1526.336 1526.651 1526.4 1526.322 1527.345 1527.388 1527.401 1527.407 1527.411 1527.428 1527.479 1527.483 1527.511 1527.558 1527.633 1527.699 1527.79 1527.899 1528.012 1528.119 1528.234 1528.371 1528.562 1528.79 1529.032 1529.798 1532.283 1532.924 1534.028 1533.468 1533.357 1534.333 1534.353 1534.311 1534.188 1534.177 1534.277 1534.292 1534.323 1534.349 1534.393 1534.369 1534.354 1534.362 1534.335 1534.347 1534.34 1534.334 1534.341 1534.345 1534.348 1534.382 1534.387 1534.343 1534.318 1534.301 1534.287 1534.289 1534.297 1534.287 1534.254 1534.255 1534.233 -9999 -9999 -9999 -9999 -9999 -9999 -9999 -9999 -9999 -9999 -9999 -9999 -9999 -9999 -9999 -9999 -9999 -9999 -9999 -9999 -9999 -9999 -9999 -9999 -9999 -9999 -9999 -9999 -9999 -9999 -9999 -9999 -9999 -9999 -9999 -9999 -9999 -9999 -9999 -9999 -9999 -9999 -9999 -9999 -9999 -9999 -9999 -9999 -9999 -9999 -9999 -9999 -9999 -9999 -9999 -9999 -9999 -9999 -9999 -9999 -9999 -9999 -9999 -9999 -9999 -9999 -9999 -9999 -9999 -9999 -9999 -9999 -9999 -9999 -9999 -9999 -9999 -9999 -9999 -9999 -9999 -9999 -9999 -9999 -9999 -9999 -9999 -9999 -9999 -9999 -9999 -9999 -9999 -9999 -9999 -9999 -9999 -9999 -9999 -9999 -9999 -9999 -9999 -9999 -9999 -9999 -9999
-9999 -9999 -9999 -9999 -9999 -9999 -9999 -9999 -9999 -9999 -9999 -9999 -9999 -9999 -9999 -9999 -9999 -9999 1534.961 1534.937 1534.881 1534.881 1534.873 1534.878 1534.858 1534.813 1534.143 1534.759 1534.858 1534.418 1534.215 1534.634 1533.19 1530.416 1528.728 1528.074 1527.839 1527.688 1527.492 1527.434 1527.374 1527.381 1527.366 1527.369 1527.384 1527.226 1527.282 1527.332 1527.259 1527.322 1527.085 1526.937 1526.917 1526.985 1527.043 1527.12 1526.897 1526.868 1526.802 1526.712 1526.455 1526.475 1527.045 1526.86 1526.707 1526.713 1526.842 1526.687 1526.748 1526.681 1526.765 1526.83 1526.818 1526.7 1526.565 1526.603 1526.646 1526.649 1526.585 1526.541 1526.459 1526.622 1526.608 1526.589 1526.617 1526.575 1526.575 1526.489 1526.418 1526.387 1526.364 1526.404 1526.428 1526.398 1526.408 1526.417 1526.479 1526.541 1526.606 1526.615 1526.252 1526.047 1524.744 1524.47 1524.901 1526.622 1526.53 1526.421 1526.233 1527.075 1526.226 1526.077 1526.084 1526.174 1526.859 1527.085 1527.405 1527.421 1527.417 1527.423 1527.431 1527.423 1527.432 1527.472 1527.491 1527.632 1527.74 1527.787 1527.815 1527.905 1527.99 1528.186 1528.348 1528.475 1528.594 1528.807 1529.05 1529.353 1530.658 1532.929 1533.271 1533.128 1533.144 1534.332 1534.361 1533.936 1533.35 1534.174 1534.238 1534.26 1534.291 1534.32 1534.358 1534.363 1534.356 1534.357 1534.35 1534.344 1534.33 1534.343 1534.355 1534.338 1534.348 1534.366 1534.352 1534.354 1534.351 1534.297 1534.295 1534.292 1534.308 1534.277 1534.241 1534.222 1534.235 1534.224 -9999 -9999 -9999 -9999 -9999 -9999 -9999 -9999 -9999 -9999 -9999 -9999 -9999 -9999 -9999 -9999 -9999 -9999 -9999 -9999 -9999 -9999 -9999 -9999 -9999 -9999 -9999 -9999 -9999 -9999 -9999 -9999 -9999 -9999 -9999 -9999 -9999 -9999 -9999 -9999 -9999 -9999 -9999 -9999 -9999 -9999 -9999 -9999 -9999 -9999 -9999 -9999 -9999 -9999 -9999 -9999 -9999 -9999 -9999 -9999 -9999 -9999 -9999 -9999 -9999 -9999 -9999 -9999 -9999 -9999 -9999 -9999 -9999 -9999 -9999 -9999 -9999 -9999 -9999 -9999 -9999 -9999 -9999 -9999 -9999 -9999 -9999 -9999 -9999 -9999 -9999 -9999 -9999 -9999 -9999 -9999 -9999 -9999 -9999 -9999 -9999 -9999 -9999 -9999 -9999 -9999
-9999 -9999 -9999 -9999 -9999 -9999 -9999 -9999 -9999 -9999 -9999 -9999 -9999 -9999 -9999 -9999 -9999 -9999 1534.956 1534.945 1534.888 1534.853 1534.847 1534.848 1534.808 1534.785 1534.316 1534.315 1534.848 1534.815 1534.598 1533.972 1532.283 1529.629 1528.522 1528.017 1527.713 1527.601 1527.48 1527.418 1527.405 1527.374 1527.38 1527.413 1527.423 1527.245 1527.329 1527.285 1527.254 1527.218 1527.158 1527.02 1526.914 1526.945 1527.08 1527.104 1526.955 1526.966 1527.125 1526.909 1526.651 1526.407 1526.768 1526.886 1526.824 1526.694 1526.776 1526.619 1526.851 1526.691 1526.664 1526.808 1526.766 1526.787 1526.717 1526.651 1526.612 1526.63 1526.669 1526.601 1526.565 1526.433 1526.67 1526.659 1526.631 1526.727 1526.591 1526.511 1526.391 1526.368 1526.328 1526.38 1526.305 1526.319 1526.33 1526.27 1526.376 1526.536 1526.555 1526.6 1526.615 1526.271 1526.035 1524.781 1524.453 1524.788 1526.546 1526.538 1526.36 1526.269 1526.239 1526.248 1527.088 1527.29 1527.433 1527.443 1527.419 1527.405 1527.403 1527.442 1527.484 1527.524 1527.515 1527.646 1527.728 1527.851 1528.043 1528.137 1528.17 1528.032 1528.01 1528.303 1528.453 1528.574 1528.725 1528.911 1529.093 1529.353 1529.71 1531.524 1532.336 1532.756 1533.392 1534.329 1533.469 1533.16 1533.281 1534.131 1534.229 1534.264 1534.317 1534.308 1534.342 1534.385 1534.417 1534.38 1534.338 1534.341 1534.364 1534.352 1534.346 1534.344 1534.343 1534.335 1534.329 1534.328 1534.349 1534.3 1534.294 1534.287 1534.284 1534.259 1534.253 1534.233 1534.216 1534.214 1534.204 -9999 -9999 -9999 -9999 -9999 -9999 -9999 -9999 -9999 -9999 -9999 -9999 -9999 -9999 -9999 -9999 -9999 -9999 -9999 -9999 -9999 -9999 -9999 -9999 -9999 -9999 -9999 -9999 -9999 -9999 -9999 -9999 -9999 -9999 -9999 -9999 -9999 -9999 -9999 -9999 -9999 -9999 -9999 -9999 -9999 -9999 -9999 -9999 -9999 -9999 -9999 -9999 -9999 -9999 -9999 -9999 -9999 -9999 -9999 -9999 -9999 -9999 -9999 -9999 -9999 -9999 -9999 -9999 -9999 -9999 -9999 -9999 -9999 -9999 -9999 -9999 -9999 -9999 -9999 -9999 -9999 -9999 -9999 -9999 -9999 -9999 -9999 -9999 -9999 -9999 -9999 -9999 -9999 -9999 -9999 -9999 -9999 -9999 -9999 -9999 -9999 -9999 -9999 -9999 -9999
-9999 -9999 -9999 -9999 -9999 -9999 -9999 -9999 -9999 -9999 -9999 -9999 -9999 -9999 -9999 -9999 -9999 -9999 1534.932 1534.896 1534.874 1534.851 1534.826 1534.812 1534.796 1534.775 1534.736 1534.558 1534.633 1534.803 1534.597 1533.973 1531.501 1529.028 1528.275 1527.92 1527.68 1527.546 1527.466 1527.426 1527.393 1527.376 1527.383 1527.387 1527.247 1527.315 1527.337 1527.296 1527.257 1527.3 1527.13 1527.031 1526.924 1526.966 1527.043 1527.068 1526.948 1526.906 1526.917 1526.926 1526.893 1526.549 1526.406 1526.843 1526.835 1526.729 1526.724 1526.619 1526.741 1526.796 1526.689 1526.819 1526.783 1526.78 1526.748 1526.702 1526.698 1526.593 1526.677 1526.621 1526.624 1526.595 1526.443 1526.715 1526.607 1526.664 1526.663 1526.588 1526.409 1526.395 1526.276 1526.335 1526.285 1526.286 1526.364 1526.389 1526.269 1526.451 1526.506 1526.527 1526.56 1526.642 1526.244 1525.982 1524.814 1524.446 1524.957 1526.556 1526.479 1526.354 1526.288 1526.699 1526.828 1527.025 1527.205 1527.48 1527.527 1527.495 1527.531 1527.621 1527.722 1527.777 1527.937 1527.994 1528.031 1528.095 1528.202 1528.237 1528.335 1528.251 1528.297 1528.512 1528.549 1528.543 1528.81 1529.155 1529.191 1529.38 1529.686 1530.231 1531.937 1533.021 1533.945 1533.333 1534.109 1534.189 1534.185 1534.187 1534.246 1534.291 1534.321 1534.315 1534.327 1534.38 1534.39 1534.393 1534.374 1534.364 1534.367 1534.362 1534.344 1534.34 1534.34 1534.335 1534.313 1534.315 1534.292 1534.297 1534.297 1534.299 1534.269 1534.263 1534.248 1534.222 1534.209 1534.217 1534.19 1534.178 -9999 -9999 -9999 -9999 -9999 -9999 -9999 -9999 -9999 -9999 -9999 -9999 -9999 -9999 -9999 -9999 -9999 -9999 -9999 -9999 -9999 -9999 -9999 -9999 -9999 -9999 -9999 -9999 -9999 -9999 -9999 -9999 -9999 -9999 -9999 -9999 -9999 -9999 -9999 -9999 -9999 -9999 -9999 -9999 -9999 -9999 -9999 -9999 -9999 -9999 -9999 -9999 -9999 -9999 -9999 -9999 -9999 -9999 -9999 -9999 -9999 -9999 -9999 -9999 -9999 -9999 -9999 -9999 -9999 -9999 -9999 -9999 -9999 -9999 -9999 -9999 -9999 -9999 -9999 -9999 -9999 -9999 -9999 -9999 -9999 -9999 -9999 -9999 -9999 -9999 -9999 -9999 -9999 -9999 -9999 -9999 -9999 -9999 -9999 -9999 -9999 -9999 -9999 -9999
-9999 -9999 -9999 -9999 -9999 -9999 -9999 -9999 -9999 -9999 -9999 -9999 -9999 -9999 -9999 -9999 -9999 -9999 1534.923 1534.881 1534.869 1534.838 1534.806 1534.799 1534.704 1534.172 1534.099 1534.254 1534.03 1534.677 1534.436 1533.312 1530.421 1528.724 1528.113 1527.891 1527.723 1527.556 1527.481 1527.413 1527.385 1527.377 1527.355 1527.331 1527.295 1527.354 1527.319 1527.283 1527.245 1527.214 1527.209 1527.035 1526.956 1526.996 1527.071 1526.998 1526.902 1526.895 1526.95 1527.093 1526.951 1526.667 1526.367 1526.762 1526.808 1526.818 1526.651 1526.559 1526.724 1526.79 1526.683 1526.814 1526.793 1526.836 1526.795 1526.734 1526.745 1526.766 1526.594 1526.614 1526.609 1526.606 1526.514 1526.45 1526.666 1526.597 1526.665 1526.749 1526.675 1526.493 1526.457 1526.383 1526.295 1526.331 1526.295 1526.415 1526.309 1526.355 1526.459 1526.476 1526.495 1526.511 1526.534 1526.2 1525.737 1524.807 1524.452 1524.961 1526.511 1526.499 1526.341 1526.317 1526.26 1526.906 1526.92 1527.286 1527.538 1527.671 1527.792 1527.906 1527.997 1528.046 1528.062 1528.132 1528.204 1528.183 1527.862 1527.842 1528.21 1528.414 1528.467 1528.607 1528.565 1528.521 1528.633 1529.099 1529.502 1529.527 1529.695 1530.032 1531.458 1533.099 1533.514 1534.188 1534.15 1534.151 1534.225 1534.207 1534.236 1534.272 1534.313 1534.32 1534.294 1534.366 1534.388 1534.399 1534.375 1534.35 1534.359 1534.366 1534.357 1534.333 1534.335 1534.328 1534.312 1534.296 1534.291 1534.289 1534.298 1534.284 1534.263 1534.264 1534.236 1534.201 1534.197 1534.191 1534.182 1534.174 1534.178 -9999 -9999 -9999 -9999 -9999 -9999 -9999 -9999 -9999 -9999 -9999 -9999 -9999 -9999 -9999 -9999 -9999 -9999 -9999 -9999 -9999 -9999 -9999 -9999 -9999 -9999 -9999 -9999 -9999 -9999 -9999 -9999 -9999 -9999 -9999 -9999 -9999 -9999 -9999 -9999 -9999 -9999 -9999 -9999 -9999 -9999 -9999 -9999 -9999 -9999 -9999 -9999 -9999 -9999 -9999 -9999 -9999 -9999 -9999 -9999 -9999 -9999 -9999 -9999 -9999 -9999 -9999 -9999 -9999 -9999 -9999 -9999 -9999 -9999 -9999 -9999 -9999 -9999 -9999 -9999 -9999 -9999 -9999 -9999 -9999 -9999 -9999 -9999 -9999 -9999 -9999 -9999 -9999 -9999 -9999 -9999 -9999 -9999 -9999 -9999 -9999 -9999 -9999
-9999 -9999 -9999 -9999 -9999 -9999 -9999 -9999 -9999 -9999 -9999 -9999 -9999 -9999 -9999 -9999 -9999 -9999 -9999 1534.86 1534.835 1534.84 1534.806 1534.799 1534.777 1534.617 1534.654 1534.083 1533.85 1533.773 1533.989 1532.414 1529.856 1528.7 1528.143 1527.946 1527.763 1527.575 1527.47 1527.409 1527.383 1527.367 1527.343 1527.295 1527.329 1527.289 1527.273 1527.233 1527.225 1527.221 1527.213 1527.065 1526.979 1526.992 1526.943 1526.917 1527.006 1526.863 1526.917 1527.046 1526.904 1526.678 1526.552 1526.405 1526.855 1526.895 1526.868 1526.588 1526.675 1526.68 1526.699 1526.721 1526.723 1526.772 1526.754 1526.749 1526.689 1526.686 1526.636 1526.619 1526.661 1526.588 1526.582 1526.479 1526.468 1526.633 1526.63 1526.592 1526.583 1526.555 1526.523 1526.479 1526.457 1526.399 1526.356 1526.37 1526.384 1526.248 1526.356 1526.446 1526.502 1526.471 1526.558 1526.561 1526.363 1525.592 1524.753 1524.457 1525.026 1526.53 1526.468 1526.339 1526.254 1526.296 1526.709 1527.284 1527.447 1527.644 1527.984 1528.111 1528.073 1528.003 1527.734 1527.615 1527.962 1527.936 1527.704 1527.722 1527.883 1528.154 1528.51 1528.613 1528.525 1528.457 1528.547 1528.933 1529.571 1529.804 1529.82 1530.08 1530.671 1532.823 1533.029 1534.077 1534.113 1534.14 1534.184 1534.172 1534.161 1534.208 1534.301 1534.308 1534.328 1534.351 1534.386 1534.375 1534.372 1534.357 1534.341 1534.358 1534.353 1534.349 1534.346 1534.326 1534.323 1534.31 1534.303 1534.307 1534.29 1534.284 1534.274 1534.283 1534.267 1534.199 1534.19 1534.184 1534.167 1534.166 1534.171 1534.17 -9999 -9999 -9999 -9999 -9999 -9999 -9999 -9999 -9999 -9999 -9999 -9999 -9999 -9999 -9999 -9999 -9999 -9999 -9999 -9999 -9999 -9999 -9999 -9999 -9999 -9999 -9999 -9999 -9999 -9999 -9999 -9999 -9999 -9999 -9999 -9999 -9999 -9999 -9999 -9999 -9999 -9999 -9999 -9999 -9999 -9999 -9999 -9999 -9999 -9999 -9999 -9999 -9999 -9999 -9999 -9999 -9999 -9999 -9999 -9999 -9999 -9999 -9999 -9999 -9999 -9999 -9999 -9999 -9999 -9999 -9999 -9999 -9999 -9999 -9999 -9999 -9999 -9999 -9999 -9999 -9999 -9999 -9999 -9999 -9999 -9999 -9999 -9999 -9999 -9999 -9999 -9999 -9999 -9999 -9999 -9999 -9999 -9999 -9999 -9999 -9999 -9999
-9999 -9999 -9999 -9999 -9999 -9999 -9999 -9999 -9999 -9999 -9999 -9999 -9999 -9999 -9999 -9999 -9999 -9999 -9999 1534.849 1534.842 1534.828 1534.8 1534.78 1534.768 1534.787 1534.748 1534.737 1534.645 1533.955 1533.395 1531.609 1529.386 1528.68 1528.271 1528.048 1527.796 1527.628 1527.49 1527.439 1527.403 1527.348 1527.306 1527.271 1527.277 1527.334 1527.225 1527.241 1527.266 1527.259 1527.287 1527.15 1526.986 1526.964 1526.918 1526.933 1526.988 1526.873 1526.883 1527.004 1526.934 1526.704 1526.587 1526.321 1526.583 1526.829 1526.807 1526.713 1526.538 1526.613 1526.649 1526.685 1526.715 1526.68 1526.804 1526.715 1526.655 1526.647 1526.605 1526.622 1526.629 1526.602 1526.581 1526.577 1526.454 1526.478 1526.591 1526.671 1526.682 1526.685 1526.636 1526.546 1526.439 1526.402 1526.343 1526.3 1526.387 1526.342 1526.226 1526.357 1526.411 1526.474 1526.511 1526.588 1526.646 1526.326 1525.748 1524.701 1524.446 1524.974 1526.495 1526.462 1526.363 1526.281 1526.686 1527.101 1527.561 1527.813 1528.011 1528.185 1528.025 1527.892 1527.637 1527.658 1527.925 1527.742 1527.582 1527.568 1527.719 1527.896 1528.336 1528.608 1528.475 1528.362 1528.461 1528.828 1529.363 1529.728 1530.04 1530.199 1530.5 1531.368 1533.801 1533.955 1534.053 1534.149 1534.188 1534.133 1533.95 1534.146 1534.205 1534.303 1534.349 1534.354 1534.369 1534.388 1534.386 1534.373 1534.347 1534.354 1534.355 1534.354 1534.357 1534.34 1534.366 1534.338 1534.32 1534.32 1534.347 1534.299 1534.28 1534.279 1534.3 1534.212 1534.194 1534.17 1534.165 1534.159 1534.151 1534.134 1534.134 -9999 -9999 -9999 -9999 -9999 -9999 -9999 -9999 -9999 -9999 -9999 -9999 -9999 -9999 -9999 -9999 -9999 -9999 -9999 -9999 -9999 -9999 -9999 -9999 -9999 -9999 -9999 -9999 -9999 -9999 -9999 -9999 -9999 -9999 -9999 -9999 -9999 -9999 -9999 -9999 -9999 -9999 -9999 -9999 -9999 -9999 -9999 -9999 -9999 -9999 -9999 -9999 -9999 -9999 -9999 -9999 -9999 -9999 -9999 -9999 -9999 -9999 -9999 -9999 -9999 -9999 -9999 -9999 -9999 -9999 -9999 -9999 -9999 -9999 -9999 -9999 -9999 -9999 -9999 -9999 -9999 -9999 -9999 -9999 -9999 -9999 -9999 -9999 -9999 -9999 -9999 -9999 -9999 -9999 -9999 -9999 -9999 -9999 -9999 -9999 -9999
-9999 -9999 -9999 -9999 -9999 -9999 -9999 -9999 -9999 -9999 -9999 -9999 -9999 -9999 -9999 -9999 -9999 -9999 -9999 1534.83 1534.804 1534.795 1534.775 1534.781 1534.702 1534.646 1534.656 1534.7 1534.707 1534.311 1533.551 1531.47 1529.314 1528.722 1528.268 1527.998 1527.825 1527.699 1527.571 1527.469 1527.419 1527.361 1527.3 1527.27 1527.314 1527.393 1527.321 1527.318 1527.316 1527.351 1527.363 1527.318 1527.167 1527.002 1527.006 1526.997 1526.972 1526.899 1526.876 1526.772 1526.868 1526.792 1526.621 1526.54 1526.354 1526.757 1526.71 1526.623 1526.682 1526.56 1526.552 1526.604 1526.799 1526.707 1526.726 1526.737 1526.639 1526.593 1526.56 1526.56 1526.542 1526.56 1526.605 1526.571 1526.54 1526.445 1526.43 1526.559 1526.597 1526.749 1526.672 1526.65 1526.441 1526.377 1526.35 1526.32 1526.289 1526.287 1526.313 1526.337 1526.444 1526.446 1526.466 1526.5 1526.536 1526.552 1526.364 1525.884 1524.664 1524.441 1525.042 1526.545 1526.444 1526.333 1526.23 1526.807 1527.039 1527.504 1527.79 1528.088 1528.09 1527.971 1527.755 1527.777 1527.783 1527.842 1527.63 1527.599 1527.859 1527.906 1528.28 1528.561 1528.384 1528.345 1528.527 1528.771 1529.113 1529.621 1530.118 1530.528 1530.697 1530.924 1533.945 1533.386 1533.759 1534.086 1534.115 1533.939 1533.001 1533.815 1534.161 1534.244 1534.324 1534.354 1534.393 1534.414 1534.401 1534.389 1534.372 1534.37 1534.383 1534.375 1534.39 1534.382 1534.389 1534.348 1534.319 1534.324 1534.302 1534.304 1534.299 1534.256 1534.201 1534.192 1534.18 1534.152 1534.151 1534.117 1534.093 1534.101 1534.101 1534.111 -9999 -9999 -9999 -9999 -9999 -9999 -9999 -9999 -9999 -9999 -9999 -9999 -9999 -9999 -9999 -9999 -9999 -9999 -9999 -9999 -9999 -9999 -9999 -9999 -9999 -9999 -9999 -9999 -9999 -9999 -9999 -9999 -9999 -9999 -9999 -9999 -9999 -9999 -9999 -9999 -9999 -9999 -9999 -9999 -9999 -9999 -9999 -9999 -9999 -9999 -9999 -9999 -9999 -9999 -9999 -9999 -9999 -9999 -9999 -9999 -9999 -9999 -9999 -9999 -9999 -9999 -9999 -9999 -9999 -9999 -9999 -9999 -9999 -9999 -9999 -9999 -9999 -9999 -9999 -9999 -9999 -9999 -9999 -9999 -9999 -9999 -9999 -9999 -9999 -9999 -9999 -9999 -9999 -9999 -9999 -9999 -9999 -9999 -9999 -9999
-9999 -9999 -9999 -9999 -9999 -9999 -9999 -9999 -9999 -9999 -9999 -9999 -9999 -9999 -9999 -9999 -9999 -9999 -9999 1534.83 1534.8 1534.769 1534.751 1534.739 1534.645 1534.542 1534.427 1534.513 1534.643 1534.001 1533.272 1530.904 1529.068 1528.536 1528.219 1527.976 1527.829 1527.709 1527.594 1527.48 1527.43 1527.377 1527.322 1527.299 1527.327 1527.363 1527.404 1527.475 1527.356 1527.393 1527.439 1527.455 1527.516 1527.295 1527.11 1527.09 1527.114 1526.989 1526.902 1526.793 1526.679 1526.709 1526.725 1526.682 1526.339 1526.449 1526.769 1526.688 1526.648 1526.667 1526.718 1526.636 1526.686 1526.765 1526.657 1526.729 1526.721 1526.594 1526.54 1526.502 1526.536 1526.565 1526.576 1526.62 1526.541 1526.531 1526.407 1526.362 1526.51 1526.748 1526.672 1526.608 1526.512 1526.392 1526.368 1526.353 1526.255 1526.2 1526.185 1526.285 1526.357 1526.351 1526.426 1526.434 1526.469 1526.53 1526.556 1526.273 1525.722 1524.644 1524.436 1525.558 1526.533 1526.369 1526.243 1526.454 1526.648 1526.927 1527.413 1527.998 1528.089 1528.133 1528.162 1528.113 1528.046 1528.037 1528.029 1527.804 1527.761 1527.953 1528.302 1528.415 1528.226 1528.267 1528.401 1528.849 1529.346 1529.775 1530.078 1530.499 1530.924 1531.154 1533.112 1532.938 1532.538 1533.903 1534.099 1533.349 1532.321 1534.225 1534.151 1534.136 1534.292 1534.352 1534.417 1534.421 1534.426 1534.408 1534.397 1534.406 1534.39 1534.399 1534.389 1534.366 1534.354 1534.333 1534.31 1534.262 1534.268 1534.266 1534.284 1534.241 1534.172 1534.174 1534.156 1534.116 1534.09 1534.081 1534.076 1534.079 1534.095 1534.112 1534.029 -9999 -9999 -9999 -9999 -9999 -9999 -9999 -9999 -9999 -9999 -9999 -9999 -9999 -9999 -9999 -9999 -9999 -9999 -9999 -9999 -9999 -9999 -9999 -9999 -9999 -9999 -9999 -9999 -9999 -9999 -9999 -9999 -9999 -9999 -9999 -9999 -9999 -9999 -9999 -9999 -9999 -9999 -9999 -9999 -9999 -9999 -9999 -9999 -9999 -9999 -9999 -9999 -9999 -9999 -9999 -9999 -9999 -9999 -9999 -9999 -9999 -9999 -9999 -9999 -9999 -9999 -9999 -9999 -9999 -9999 -9999 -9999 -9999 -9999 -9999 -9999 -9999 -9999 -9999 -9999 -9999 -9999 -9999 -9999 -9999 -9999 -9999 -9999 -9999 -9999 -9999 -9999 -9999 -9999 -9999 -9999 -9999 -9999 -9999
-9999 -9999 -9999 -9999 -9999 -9999 -9999 -9999 -9999 -9999 -9999 -9999 -9999 -9999 -9999 -9999 -9999 -9999 -9999 -9999 1534.807 1534.765 1534.74 1534.66 1534.577 1534.468 1533.982 1533.967 1534.625 1533.694 1532.966 1530.267 1528.847 1528.419 1528.206 1528.027 1527.857 1527.694 1527.597 1527.506 1527.433 1527.387 1527.325 1527.301 1527.324 1527.354 1527.351 1527.381 1527.321 1527.434 1527.512 1527.472 1527.603 1527.474 1527.429 1527.373 1527.266 1527.133 1526.942 1526.751 1526.677 1526.675 1526.714 1526.768 1526.537 1526.365 1526.548 1526.815 1526.797 1526.639 1526.667 1526.714 1526.506 1526.712 1526.692 1526.671 1526.723 1526.704 1526.52 1526.525 1526.48 1526.469 1526.488 1526.566 1526.599 1526.534 1526.533 1526.389 1526.428 1526.459 1526.821 1526.73 1526.671 1526.461 1526.396 1526.375 1526.357 1526.239 1526.191 1526.125 1526.211 1526.284 1526.358 1526.389 1526.382 1526.438 1526.552 1526.57 1526.311 1525.611 1524.564 1524.42 1525.618 1526.508 1526.394 1526.347 1526.479 1526.617 1527.109 1527.755 1527.953 1528.004 1528.135 1528.252 1528.233 1528.261 1528.311 1528.115 1528.215 1528.351 1528.315 1528.411 1528.251 1528.371 1528.69 1529.254 1529.356 1529.77 1530.059 1530.297 1530.745 1531.22 1531.894 1532.51 1531.492 1533.11 1532.634 1531.426 1531.96 1532.883 1533.381 1534.102 1534.286 1534.304 1534.41 1534.409 1534.403 1534.386 1534.388 1534.399 1534.391 1534.376 1534.363 1534.315 1534.316 1534.307 1534.26 1534.231 1534.226 1534.21 1534.187 1534.175 1534.155 1534.171 1534.176 1534.083 1534.063 1534.091 1534.078 1534.073 1534.071 1534.057 1534.024 1534.011 -9999 -9999 -9999 -9999 -9999 -9999 -9999 -9999 -9999 -9999 -9999 -9999 -9999 -9999 -9999 -9999 -9999 -9999 -9999 -9999 -9999 -9999 -9999 -9999 -9999 -9999 -9999 -9999 -9999 -9999 -9999 -9999 -9999 -9999 -9999 -9999 -9999 -9999 -9999 -9999 -9999 -9999 -9999 -9999 -9999 -9999 -9999 -9999 -9999 -9999 -9999 -9999 -9999 -9999 -9999 -9999 -9999 -9999 -9999 -9999 -9999 -9999 -9999 -9999 -9999 -9999 -9999 -9999 -9999 -9999 -9999 -9999 -9999 -9999 -9999 -9999 -9999 -9999 -9999 -9999 -9999 -9999 -9999 -9999 -9999 -9999 -9999 -9999 -9999 -9999 -9999 -9999 -9999 -9999 -9999 -9999 -9999 -9999
-9999 -9999 -9999 -9999 -9999 -9999 -9999 -9999 -9999 -9999 -9999 -9999 -9999 -9999 -9999 -9999 -9999 -9999 -9999 -9999 1534.769 1534.75 1534.714 1534.608 1534.453 1534.32 1534.229 1533.484 1534.207 1533.685 1531.71 1529.692 1529.005 1528.524 1528.276 1528.094 1527.874 1527.747 1527.639 1527.536 1527.445 1527.402 1527.318 1527.311 1527.4 1527.401 1527.338 1527.481 1527.366 1527.362 1527.495 1527.382 1527.492 1527.576 1527.579 1527.468 1527.265 1527.151 1527.016 1526.805 1526.715 1526.691 1526.818 1526.692 1526.608 1526.402 1526.437 1526.674 1526.818 1526.629 1526.58 1526.708 1526.571 1526.764 1526.724 1526.749 1526.692 1526.711 1526.748 1526.588 1526.445 1526.453 1526.454 1526.505 1526.47 1526.562 1526.537 1526.482 1526.403 1526.421 1526.679 1526.71 1526.573 1526.478 1526.47 1526.43 1526.368 1526.303 1526.286 1526.171 1526.105 1526.211 1526.294 1526.318 1526.309 1526.366 1526.458 1526.535 1526.566 1526.383 1525.549 1524.449 1524.404 1525.937 1526.534 1526.414 1526.304 1526.446 1526.732 1527.205 1527.823 1527.868 1528.103 1528.144 1528.169 1528.234 1528.304 1528.565 1528.39 1528.37 1528.248 1528.177 1528.295 1528.44 1528.761 1528.793 1528.735 1529.224 1529.636 1530.014 1530.198 1530.526 1531.19 1532.105 1530.58 1531.441 1530.563 1532.007 1533.852 1534.056 1534.109 1534.248 1534.297 1534.327 1534.369 1534.427 1534.467 1534.387 1534.388 1534.395 1534.424 1534.4 1534.323 1534.26 1534.228 1534.217 1534.222 1534.213 1534.229 1534.181 1534.156 1534.137 1534.14 1534.111 1534.073 1534.064 1534.063 1534.082 1534.083 1534.053 1534.038 1534.036 1534.011 1534.004 1533.971 -9999 -9999 -9999 -9999 -9999 -9999 -9999 -9999 -9999 -9999 -9999 -9999 -9999 -9999 -9999 -9999 -9999 -9999 -9999 -9999 -9999 -9999 -9999 -9999 -9999 -9999 -9999 -9999 -9999 -9999 -9999 -9999 -9999 -9999 -9999 -9999 -9999 -9999 -9999 -9999 -9999 -9999 -9999 -9999 -9999 -9999 -9999 -9999 -9999 -9999 -9999 -9999 -9999 -9999 -9999 -9999 -9999 -9999 -9999 -9999 -9999 -9999 -9999 -9999 -9999 -9999 -9999 -9999 -9999 -9999 -9999 -9999 -9999 -9999 -9999 -9999 -9999 -9999 -9999 -9999 -9999 -9999 -9999 -9999 -9999 -9999 -9999 -9999 -9999 -9999 -9999 -9999 -9999 -9999 -9999 -9999 -9999
-9999 -9999 -9999 -9999 -9999 -9999 -9999 -9999 -9999 -9999 -9999 -9999 -9999 -9999 -9999 -9999 -9999 -9999 -9999 -9999 1534.742 1534.734 1534.693 1534.636 1534.186 1533.834 1534.12 1533.56 1533.107 1532.721 1530.797 1529.666 1528.965 1528.627 1528.317 1528.117 1527.929 1527.746 1527.668 1527.528 1527.484 1527.394 1527.375 1527.349 1527.435 1527.439 1527.355 1527.345 1527.341 1527.395 1527.446 1527.418 1527.478 1527.547 1527.494 1527.386 1527.26 1527.199 1527.068 1526.982 1526.822 1526.76 1526.719 1526.76 1526.701 1526.569 1526.359 1526.47 1526.827 1526.73 1526.593 1526.651 1526.672 1526.49 1526.796 1526.624 1526.707 1526.669 1526.774 1526.608 1526.497 1526.416 1526.365 1526.401 1526.42 1526.494 1526.539 1526.494 1526.421 1526.328 1526.394 1526.781 1526.64 1526.568 1526.462 1526.46 1526.433 1526.358 1526.305 1526.269 1526.181 1526.201 1526.273 1526.304 1526.333 1526.302 1526.389 1526.447 1526.531 1526.537 1526.311 1525.483 1524.404 1524.433 1526.335 1526.533 1526.373 1526.368 1526.433 1526.609 1527.361 1527.946 1528.061 1528.057 1528.02 1527.918 1527.909 1528.014 1528.339 1528.378 1528.251 1527.891 1527.894 1528.154 1528.004 1527.757 1527.848 1528.28 1528.996 1529.463 1529.463 1529.798 1530.431 1530.428 1529.646 1529.768 1530.839 1532.76 1534.146 1534.17 1534.247 1534.296 1534.334 1534.371 1534.379 1534.43 1534.426 1534.397 1534.381 1534.354 1534.355 1534.379 1534.27 1534.228 1534.215 1534.201 1534.207 1534.215 1534.176 1534.135 1534.123 1534.105 1534.104 1534.085 1534.068 1534.063 1534.066 1534.068 1534.064 1534.045 1534.035 1534.024 1534.006 1533.984 1533.948 1533.917 -9999 -9999 -9999 -9999 -9999 -9999 -9999 -9999 -9999 -9999 -9999 -9999 -9999 -9999 -9999 -9999 -9999 -9999 -9999 -9999 -9999 -9999 -9999 -9999 -9999 -9999 -9999 -9999 -9999 -9999 -9999 -9999 -9999 -9999 -9999 -9999 -9999 -9999 -9999 -9999 -9999 -9999 -9999 -9999 -9999 -9999 -9999 -9999 -9999 -9999 -9999 -9999 -9999 -9999 -9999 -9999 -9999 -9999 -9999 -9999 -9999 -9999 -9999 -9999 -9999 -9999 -9999 -9999 -9999 -9999 -9999 -9999 -9999 -9999 -9999 -9999 -9999 -9999 -9999 -9999 -9999 -9999 -9999 -9999 -9999 -9999 -9999 -9999 -9999 -9999 -9999 -9999 -9999 -9999 -9999 -9999
-9999 -9999 -9999 -9999 -9999 -9999 -9999 -9999 -9999 -9999 -9999 -9999 -9999 -9999 -9999 -9999 -9999 -9999 -9999 -9999 1534.749 1534.718 1534.692 1534.651 1534.153 1533.782 1533.622 1533.604 1533.145 1531.929 1530.932 1530.047 1528.986 1528.64 1528.41 1528.131 1527.914 1527.709 1527.603 1527.536 1527.491 1527.409 1527.382 1527.37 1527.366 1527.331 1527.349 1527.302 1527.347 1527.414 1527.477 1527.445 1527.515 1527.585 1527.368 1527.28 1527.237 1527.256 1527.176 1527.008 1526.945 1526.796 1526.79 1526.75 1526.736 1526.731 1526.403 1526.35 1526.639 1526.732 1526.651 1526.58 1526.656 1526.488 1526.795 1526.766 1526.678 1526.655 1526.729 1526.68 1526.584 1526.438 1526.426 1526.339 1526.392 1526.533 1526.605 1526.577 1526.451 1526.474 1526.357 1526.592 1526.684 1526.575 1526.503 1526.424 1526.432 1526.356 1526.34 1526.311 1526.266 1526.158 1526.217 1526.256 1526.369 1526.277 1526.27 1526.329 1526.43 1526.534 1526.541 1526.2 1524.785 1524.406 1524.713 1526.504 1526.5 1526.28 1526.404 1526.491 1527.02 1527.725 1527.85 1527.697 1527.792 1527.628 1527.409 1527.453 1527.87 1528.19 1528.103 1527.584 1527.332 1527.427 1527.293 1527.036 1527.294 1527.631 1528.244 1528.749 1528.977 1529.428 1529.807 1529.212 1529.222 1530.805 1532.997 1532.939 1533.47 1534.144 1534.365 1534.359 1534.443 1534.395 1534.395 1534.428 1534.454 1534.424 1534.31 1534.29 1534.303 1534.282 1534.248 1534.211 1534.238 1534.196 1534.185 1534.169 1534.134 1534.12 1534.086 1534.084 1534.074 1534.072 1534.062 1534.063 1534.075 1534.066 1534.047 1534.04 1534.04 1534.014 1533.985 1533.969 1533.956 1533.903 1533.786 -9999 -9999 -9999 -9999 -9999 -9999 -9999 -9999 -9999 -9999 -9999 -9999 -9999 -9999 -9999 -9999 -9999 -9999 -9999 -9999 -9999 -9999 -9999 -9999 -9999 -9999 -9999 -9999 -9999 -9999 -9999 -9999 -9999 -9999 -9999 -9999 -9999 -9999 -9999 -9999 -9999 -9999 -9999 -9999 -9999 -9999 -9999 -9999 -9999 -9999 -9999 -9999 -9999 -9999 -9999 -9999 -9999 -9999 -9999 -9999 -9999 -9999 -9999 -9999 -9999 -9999 -9999 -9999 -9999 -9999 -9999 -9999 -9999 -9999 -9999 -9999 -9999 -9999 -9999 -9999 -9999 -9999 -9999 -9999 -9999 -9999 -9999 -9999 -9999 -9999 -9999 -9999 -9999 -9999 -9999
-9999 -9999 -9999 -9999 -9999 -9999 -9999 -9999 -9999 -9999 -9999 -9999 -9999 -9999 -9999 -9999 -9999 -9999 -9999 -9999 1534.742 1534.692 1534.67 1534.633 1534.58 1534.4 1533.813 1533.675 1533.323 1532.686 1531.672 1530.37 1529.065 1528.543 1528.335 1528.123 1527.924 1527.739 1527.621 1527.539 1527.49 1527.441 1527.394 1527.352 1527.304 1527.377 1527.327 1527.322 1527.528 1527.569 1527.495 1527.497 1527.492 1527.542 1527.422 1527.285 1527.29 1527.312 1527.288 1527.008 1526.897 1526.845 1526.832 1526.873 1527.079 1526.76 1526.693 1526.351 1526.387 1526.641 1526.787 1526.581 1526.548 1526.584 1526.528 1526.706 1526.697 1526.652 1526.635 1526.646 1526.645 1526.571 1526.399 1526.33 1526.305 1526.53 1526.488 1526.396 1526.46 1526.447 1526.407 1526.431 1526.737 1526.515 1526.498 1526.476 1526.426 1526.417 1526.39 1526.317 1526.251 1526.131 1526.116 1526.297 1526.324 1526.236 1526.276 1526.312 1526.313 1526.401 1526.518 1526.395 1525.973 1524.589 1524.389 1525.394 1526.422 1526.379 1526.334 1526.372 1526.703 1527.221 1527.517 1527.4 1527.634 1527.371 1527.049 1526.969 1527.27 1527.884 1527.726 1527.295 1526.74 1526.699 1526.636 1526.536 1526.932 1527.283 1527.7 1528.345 1528.697 1529.099 1529.163 1528.668 1531.126 1532.283 1533.928 1534.199 1534.183 1534.293 1534.553 1534.482 1534.497 1534.497 1534.484 1534.448 1534.456 1534.35 1534.282 1534.277 1534.265 1534.257 1534.229 1534.235 1534.232 1534.174 1534.152 1534.133 1534.111 1534.107 1534.09 1534.061 1534.057 1534.06 1534.065 1534.054 1534.058 1534.035 1534.006 1534.005 1534.025 1534.002 1533.958 1533.951 1533.932 1533.878 1533.825 1532.604 -9999 -9999 -9999 -9999 -9999 -9999 -9999 -9999 -9999 -9999 -9999 -9999 -9999 -9999 -9999 -9999 -9999 -9999 -9999 -9999 -9999 -9999 -9999 -9999 -9999 -9999 -9999 -9999 -9999 -9999 -9999 -9999 -9999 -9999 -9999 -9999 -9999 -9999 -9999 -9999 -9999 -9999 -9999 -9999 -9999 -9999 -9999 -9999 -9999 -9999 -9999 -9999 -9999 -9999 -9999 -9999 -9999 -9999 -9999 -9999 -9999 -9999 -9999 -9999 -9999 -9999 -9999 -9999 -9999 -9999 -9999 -9999 -9999 -9999 -9999 -9999 -9999 -9999 -9999 -9999 -9999 -9999 -9999 -9999 -9999 -9999 -9999 -9999 -9999 -9999 -9999 -9999 -9999 -9999
-9999 -9999 -9999 -9999 -9999 -9999 -9999 -9999 -9999 -9999 -9999 -9999 -9999 -9999 -9999 -9999 -9999 -9999 -9999 -9999 -9999 1534.691 1534.649 1534.617 1534.593 1534.567 1534.441 1534.404 1533.851 1533.125 1531.893 1530.359 1529.164 1528.581 1528.266 1528.093 1527.944 1527.745 1527.619 1527.544 1527.499 1527.472 1527.408 1527.346 1527.3 1527.308 1527.26 1527.318 1527.392 1527.581 1527.6 1527.555 1527.569 1527.517 1527.435 1527.306 1527.308 1527.354 1527.223 1527.115 1526.989 1526.914 1527.047 1526.98 1527.157 1526.843 1526.691 1526.709 1526.365 1526.437 1526.744 1526.728 1526.502 1526.475 1526.472 1526.607 1526.776 1526.604 1526.61 1526.633 1526.558 1526.68 1526.681 1526.465 1526.477 1526.53 1526.489 1526.425 1526.436 1526.429 1526.435 1526.39 1526.724 1526.575 1526.545 1526.449 1526.411 1526.391 1526.343 1526.25 1526.231 1526.188 1526.168 1526.132 1526.24 1526.153 1526.157 1526.263 1526.309 1526.401 1526.46 1526.476 1526.348 1524.877 1524.502 1524.38 1526.307 1526.484 1526.374 1526.276 1526.399 1526.672 1527.191 1527.123 1527.218 1527.02 1526.594 1526.629 1526.855 1527.303 1527.386 1527.034 1526.489 1526.186 1526.088 1526.205 1526.498 1526.911 1527.323 1527.908 1528.389 1528.624 1528.42 1529.189 1531.992 1532.808 1533.769 1534.199 1534.285 1534.378 1534.642 1534.651 1534.542 1534.489 1534.444 1534.407 1534.399 1534.267 1534.25 1534.27 1534.256 1534.271 1534.235 1534.253 1534.22 1534.13 1534.119 1534.106 1534.097 1534.081 1534.073 1534.08 1534.058 1534.066 1534.058 1534.069 1534.058 1534.007 1533.992 1533.994 1533.974 1533.96 1533.952 1533.937 1533.918 1533.865 1533.557 1532.826 1532.336 -9999 -9999 -9999 -9999 -9999 -9999 -9999 -9999 -9999 -9999 -9999 -9999 -9999 -9999 -9999 -9999 -9999 -9999 -9999 -9999 -9999 -9999 -9999 -9999 -9999 -9999 -9999 -9999 -9999 -9999 -9999 -9999 -9999 -9999 -9999 -9999 -9999 -9999 -9999 -9999 -9999 -9999 -9999 -9999 -9999 -9999 -9999 -9999 -9999 -9999 -9999 -9999 -9999 -9999 -9999 -9999 -9999 -9999 -9999 -9999 -9999 -9999 -9999 -9999 -9999 -9999 -9999 -9999 -9999 -9999 -9999 -9999 -9999 -9999 -9999 -9999 -9999 -9999 -9999 -9999 -9999 -9999 -9999 -9999 -9999 -9999 -9999 -9999 -9999 -9999 -9999 -9999 -9999
-9999 -9999 -9999 -9999 -9999 -9999 -9999 -9999 -9999 -9999 -9999 -9999 -9999 -9999 -9999 -9999 -9999 -9999 -9999 -9999 -9999 1534.685 1534.645 1534.629 1534.609 1534.56 1534.355 1534.238 1534.331 1533.463 1532.113 1530.325 1529.295 1528.666 1528.324 1528.078 1527.879 1527.719 1527.619 1527.547 1527.508 1527.493 1527.436 1527.37 1527.309 1527.272 1527.269 1527.295 1527.395 1527.667 1527.59 1527.643 1527.598 1527.527 1527.477 1527.381 1527.349 1527.319 1527.284 1527.217 1527.202 1527.132 1527.021 1526.96 1526.929 1526.72 1526.68 1526.741 1526.573 1526.353 1526.449 1526.702 1526.797 1526.456 1526.431 1526.591 1526.656 1526.639 1526.662 1526.634 1526.667 1526.539 1526.424 1526.499 1526.56 1526.527 1526.553 1526.519 1526.437 1526.446 1526.453 1526.396 1526.644 1526.622 1526.565 1526.521 1526.453 1526.368 1526.353 1526.315 1526.293 1526.254 1526.223 1526.194 1526.208 1526.128 1526.122 1526.17 1526.22 1526.357 1526.425 1526.445 1526.503 1526.314 1524.635 1524.379 1524.993 1526.515 1526.402 1526.333 1526.268 1526.4 1526.769 1526.797 1526.773 1526.542 1526.367 1526.501 1526.762 1527.099 1527.123 1526.983 1526.249 1526.048 1525.994 1526.115 1526.297 1526.719 1527.055 1527.535 1527.917 1528.054 1527.79 1529.291 1530.669 1532.726 1533.464 1534.326 1534.386 1534.43 1534.52 1534.562 1534.508 1534.428 1534.402 1534.32 1534.297 1534.238 1534.224 1534.218 1534.214 1534.267 1534.248 1534.217 1534.245 1534.149 1534.086 1534.077 1534.058 1534.037 1534.061 1534.074 1534.073 1534.078 1534.066 1534.058 1534.009 1533.983 1533.996 1533.97 1533.958 1533.953 1533.937 1533.924 1533.899 1533.859 1533.838 1533.79 1533.766 1533.779 1533.707 -9999 -9999 -9999 -9999 -9999 -9999 -9999 -9999 -9999 -9999 -9999 -9999 -9999 -9999 -9999 -9999 -9999 -9999 -9999 -9999 -9999 -9999 -9999 -9999 -9999 -9999 -9999 -9999 -9999 -9999 -9999 -9999 -9999 -9999 -9999 -9999 -9999 -9999 -9999 -9999 -9999 -9999 -9999 -9999 -9999 -9999 -9999 -9999 -9999 -9999 -9999 -9999 -9999 -9999 -9999 -9999 -9999 -9999 -9999 -9999 -9999 -9999 -9999 -9999 -9999 -9999 -9999 -9999 -9999 -9999 -9999 -9999 -9999 -9999 -9999 -9999 -9999 -9999 -9999 -9999 -9999 -9999 -9999 -9999 -9999 -9999 -9999 -9999 -9999 -9999 -9999
-9999 -9999 -9999 -9999 -9999 -9999 -9999 -9999 -9999 -9999 -9999 -9999 -9999 -9999 -9999 -9999 -9999 -9999 -9999 -9999 -9999 1534.662 1534.653 1534.631 1534.599 1534.477 1534.322 1534.1 1533.834 1533.23 1532.384 1531.113 1529.457 1528.614 1528.282 1528.005 1527.858 1527.708 1527.606 1527.549 1527.517 1527.49 1527.462 1527.417 1527.327 1527.287 1527.278 1527.283 1527.333 1527.625 1527.563 1527.567 1527.546 1527.443 1527.452 1527.419 1527.387 1527.355 1527.417 1527.382 1527.224 1527.163 1526.998 1526.9 1526.789 1526.734 1526.71 1526.755 1526.714 1526.518 1526.323 1526.561 1526.649 1526.569 1526.541 1526.429 1526.534 1526.573 1526.622 1526.639 1526.604 1526.542 1526.729 1526.726 1526.575 1526.505 1526.564 1526.534 1526.429 1526.439 1526.51 1526.391 1526.607 1526.615 1526.622 1526.547 1526.532 1526.437 1526.378 1526.342 1526.261 1526.264 1526.19 1526.144 1526.105 1526.073 1526.105 1526.158 1526.175 1526.22 1526.384 1526.416 1526.475 1526.533 1525.559 1524.557 1524.372 1526.362 1526.368 1526.36 1526.25 1526.345 1526.561 1526.53 1526.603 1526.318 1526.237 1526.324 1526.955 1527.052 1526.814 1526.635 1526.165 1526.037 1526.017 1526.06 1526.248 1526.605 1527.07 1527.388 1527.624 1527.569 1527.527 1528.692 1530.575 1532.938 1533.392 1534.13 1534.353 1534.384 1534.367 1534.384 1534.429 1534.417 1534.358 1534.263 1534.253 1534.207 1534.214 1534.204 1534.194 1534.18 1534.142 1534.113 1534.158 1534.154 1534.12 1534.077 1534.076 1534.037 1534.037 1534.053 1534.07 1534.099 1534.076 1534.046 1533.985 1533.965 1533.951 1533.951 1533.929 1533.93 1533.918 1533.912 1533.892 1533.863 1533.827 1533.799 1533.782 1533.784 1533.328 1532.95 -9999 -9999 -9999 -9999 -9999 -9999 -9999 -9999 -9999 -9999 -9999 -9999 -9999 -9999 -9999 -9999 -9999 -9999 -9999 -9999 -9999 -9999 -9999 -9999 -9999 -9999 -9999 -9999 -9999 -9999 -9999 -9999 -9999 -9999 -9999 -9999 -9999 -9999 -9999 -9999 -9999 -9999 -9999 -9999 -9999 -9999 -9999 -9999 -9999 -9999 -9999 -9999 -9999 -9999 -9999 -9999 -9999 -9999 -9999 -9999 -9999 -9999 -9999 -9999 -9999 -9999 -9999 -9999 -9999 -9999 -9999 -9999 -9999 -9999 -9999 -9999 -9999 -9999 -9999 -9999 -9999 -9999 -9999 -9999 -9999 -9999 -9999 -9999 -9999 -9999
-9999 -9999 -9999 -9999 -9999 -9999 -9999 -9999 -9999 -9999 -9999 -9999 -9999 -9999 -9999 -9999 -9999 -9999 -9999 -9999 -9999 1534.649 1534.661 1534.624 1534.598 1534.511 1533.881 1534.038 1533.859 1534.138 1533.312 1531.598 1529.571 1528.548 1528.296 1528.031 1527.898 1527.74 1527.647 1527.556 1527.518 1527.481 1527.44 1527.349 1527.293 1527.288 1527.277 1527.283 1527.302 1527.403 1527.528 1527.533 1527.471 1527.417 1527.435 1527.5 1527.446 1527.489 1527.536 1527.497 1527.315 1527.189 1527.135 1526.905 1526.763 1526.722 1526.739 1526.711 1526.7 1526.626 1526.483 1526.333 1526.491 1526.645 1526.687 1526.587 1526.447 1526.424 1526.422 1526.398 1526.515 1526.599 1526.65 1526.733 1526.558 1526.532 1526.578 1526.503 1526.389 1526.491 1526.554 1526.437 1526.511 1526.547 1526.678 1526.543 1526.518 1526.476 1526.412 1526.32 1526.322 1526.259 1526.199 1526.151 1526.057 1526.07 1526.028 1526.03 1526.088 1526.115 1526.197 1526.271 1526.292 1526.476 1526.494 1524.586 1524.382 1525.704 1526.356 1526.332 1526.273 1526.222 1526.31 1526.349 1526.351 1526.251 1526.181 1526.257 1526.725 1526.602 1526.453 1526.29 1526.16 1526.126 1526.102 1526.087 1526.215 1526.56 1526.869 1527.1 1527.234 1527.138 1527.016 1528.128 1529.961 1533.48 1533.447 1533.712 1533.979 1534.117 1534.21 1534.314 1534.335 1534.377 1534.326 1534.231 1534.172 1534.151 1534.172 1534.167 1534.169 1534.151 1534.093 1534.063 1534.08 1534.121 1534.193 1534.093 1534.037 1534.033 1534.039 1534.048 1534.038 1534.045 1534.09 1534.008 1533.983 1533.958 1533.964 1533.949 1533.93 1533.9 1533.896 1533.887 1533.881 1533.862 1533.827 1533.807 1533.787 1533.739 1533.282 1533.646 1533.678 -9999 -9999 -9999 -9999 -9999 -9999 -9999 -9999 -9999 -9999 -9999 -9999 -9999 -9999 -9999 -9999 -9999 -9999 -9999 -9999 -9999 -9999 -9999 -9999 -9999 -9999 -9999 -9999 -9999 -9999 -9999 -9999 -9999 -9999 -9999 -9999 -9999 -9999 -9999 -9999 -9999 -9999 -9999 -9999 -9999 -9999 -9999 -9999 -9999 -9999 -9999 -9999 -9999 -9999 -9999 -9999 -9999 -9999 -9999 -9999 -9999 -9999 -9999 -9999 -9999 -9999 -9999 -9999 -9999 -9999 -9999 -9999 -9999 -9999 -9999 -9999 -9999 -9999 -9999 -9999 -9999 -9999 -9999 -9999 -9999 -9999 -9999 -9999 -9999
-9999 -9999 -9999 -9999 -9999 -9999 -9999 -9999 -9999 -9999 -9999 -9999 -9999 -9999 -9999 -9999 -9999 -9999 -9999 -9999 -9999 -9999 1534.65 1534.618 1534.596 1534.559 1534.502 1534.52 1534.489 1534.403 1533.908 1532.157 1530.123 1528.724 1528.374 1528.146 1527.978 1527.777 1527.641 1527.552 1527.49 1527.46 1527.423 1527.373 1527.368 1527.254 1527.283 1527.478 1527.431 1527.393 1527.451 1527.491 1527.504 1527.537 1527.4 1527.471 1527.501 1527.493 1527.531 1527.491 1527.427 1527.235 1527.14 1526.999 1526.85 1526.705 1526.721 1526.656 1526.641 1526.65 1526.584 1526.408 1526.333 1526.457 1526.778 1526.705 1526.627 1526.697 1526.647 1526.602 1526.461 1526.51 1526.674 1526.541 1526.541 1526.527 1526.522 1526.482 1526.377 1526.385 1526.451 1526.478 1526.432 1526.52 1526.49 1526.553 1526.411 1526.38 1526.434 1526.436 1526.3 1526.222 1526.212 1526.235 1526.083 1525.988 1525.983 1525.991 1525.989 1526.061 1526.104 1526.141 1526.227 1526.334 1526.507 1525.527 1524.517 1524.473 1526.328 1526.283 1526.278 1526.235 1526.181 1526.281 1526.252 1526.186 1526.22 1526.305 1526.365 1526.264 1526.195 1526.155 1526.169 1526.139 1526.138 1526.081 1526.205 1526.55 1526.723 1526.695 1526.63 1526.573 1526.687 1527.475 1528.784 1533.264 1532.63 1532.402 1533.904 1533.83 1534.149 1534.23 1534.217 1534.239 1534.287 1534.152 1534.099 1534.101 1534.13 1534.142 1534.15 1534.111 1534.068 1534.043 1534.024 1534.026 1534.129 1534.1 1533.982 1533.971 1533.983 1534.019 1534.018 1534.004 1533.986 1533.972 1533.981 1533.943 1533.949 1533.916 1533.899 1533.895 1533.887 1533.888 1533.863 1533.857 1533.853 1533.85 1533.79 1533.752 1533.7 1533.655 1533.425 1533.418 -9999 -9999 -9999 -9999 -9999 -9999 -9999 -9999 -9999 -9999 -9999 -9999 -9999 -9999 -9999 -9999 -9999 -9999 -9999 -9999 -9999 -9999 -9999 -9999 -9999 -9999 -9999 -9999 -9999 -9999 -9999 -9999 -9999 -9999 -9999 -9999 -9999 -9999 -9999 -9999 -9999 -9999 -9999 -9999 -9999 -9999 -9999 -9999 -9999 -9999 -9999 -9999 -9999 -9999 -9999 -9999 -9999 -9999 -9999 -9999 -9999 -9999 -9999 -9999 -9999 -9999 -9999 -9999 -9999 -9999 -9999 -9999 -9999 -9999 -9999 -9999 -9999 -9999 -9999 -9999 -9999 -9999 -9999 -9999 -9999 -9999 -9999 -9999
-9999 -9999 -9999 -9999 -9999 -9999 -9999 -9999 -9999 -9999 -9999 -9999 -9999 -9999 -9999 -9999 -9999 -9999 -9999 -9999 -9999 -9999 1534.635 1534.614 1534.588 1534.562 1534.098 1534.465 1534.432 1534.276 1534.2 1532.378 1530.699 1529.074 1528.524 1528.245 1528.016 1527.822 1527.662 1527.559 1527.486 1527.452 1527.431 1527.399 1527.336 1527.271 1527.345 1527.399 1527.471 1527.48 1527.466 1527.533 1527.552 1527.515 1527.328 1527.471 1527.517 1527.589 1527.62 1527.519 1527.419 1527.202 1527.147 1527.15 1526.945 1526.755 1526.685 1526.642 1526.625 1526.67 1526.677 1526.597 1526.379 1526.282 1526.541 1526.653 1526.618 1526.678 1526.672 1526.583 1526.623 1526.391 1526.634 1526.56 1526.641 1526.503 1526.457 1526.414 1526.356 1526.253 1526.369 1526.522 1526.418 1526.573 1526.567 1526.534 1526.555 1526.501 1526.448 1526.328 1526.27 1526.247 1526.271 1526.236 1526.19 1526.035 1526.043 1525.996 1525.944 1525.94 1525.982 1526.038 1526.166 1526.222 1526.38 1526.395 1524.569 1524.377 1526.187 1526.239 1526.178 1526.155 1526.14 1526.159 1526.166 1526.207 1526.149 1526.144 1526.155 1526.173 1526.195 1526.213 1526.202 1526.181 1526.219 1526.196 1526.09 1526.178 1526.231 1526.244 1526.338 1526.388 1526.411 1526.655 1527.543 1529.001 1530.526 1530.925 1532.843 1533.823 1534.138 1534.173 1534.159 1534.149 1534.124 1534.062 1534.044 1534.058 1534.107 1534.132 1534.13 1534.108 1534.044 1533.985 1533.943 1533.961 1533.979 1533.973 1533.98 1533.958 1533.943 1533.98 1533.993 1533.979 1533.969 1533.961 1533.933 1533.916 1533.908 1533.911 1533.895 1533.887 1533.875 1533.89 1533.856 1533.862 1533.852 1533.846 1533.8 1533.739 1533.699 1533.548 1533.255 1533.19 1532.865 -9999 -9999 -9999 -9999 -9999 -9999 -9999 -9999 -9999 -9999 -9999 -9999 -9999 -9999 -9999 -9999 -9999 -9999 -9999 -9999 -9999 -9999 -9999 -9999 -9999 -9999 -9999 -9999 -9999 -9999 -9999 -9999 -9999 -9999 -9999 -9999 -9999 -9999 -9999 -9999 -9999 -9999 -9999 -9999 -9999 -9999 -9999 -9999 -9999 -9999 -9999 -9999 -9999 -9999 -9999 -9999 -9999 -9999 -9999 -9999 -9999 -9999 -9999 -9999 -9999 -9999 -9999 -9999 -9999 -9999 -9999 -9999 -9999 -9999 -9999 -9999 -9999 -9999 -9999 -9999 -9999 -9999 -9999 -9999 -9999 -9999 -9999
-9999 -9999 -9999 -9999 -9999 -9999 -9999 -9999 -9999 -9999 -9999 -9999 -9999 -9999 -9999 -9999 -9999 -9999 -9999 -9999 -9999 -9999 1534.615 1534.61 1534.586 1534.572 1534.438 1533.925 1533.83 1533.799 1534.025 1532.419 1530.659 1529.518 1528.802 1528.342 1528.01 1527.828 1527.682 1527.571 1527.499 1527.443 1527.417 1527.411 1527.385 1527.358 1527.38 1527.328 1527.422 1527.522 1527.507 1527.596 1527.582 1527.524 1527.532 1527.566 1527.602 1527.653 1527.686 1527.569 1527.403 1527.188 1527.116 1527.095 1526.973 1526.858 1526.715 1526.624 1526.613 1526.619 1526.673 1526.682 1526.583 1526.337 1526.306 1526.451 1526.625 1526.624 1526.622 1526.567 1526.544 1526.509 1526.368 1526.591 1526.713 1526.644 1526.515 1526.498 1526.459 1526.393 1526.322 1526.585 1526.56 1526.417 1526.605 1526.559 1526.469 1526.492 1526.415 1526.365 1526.294 1526.303 1526.329 1526.305 1526.247 1526.15 1526.048 1526.045 1526.002 1525.921 1525.968 1526.029 1526.095 1526.33 1526.391 1526.403 1524.614 1524.387 1526.111 1526.296 1526.333 1526.325 1526.172 1526.103 1526.176 1526.16 1526.16 1526.125 1526.116 1526.082 1526.068 1526.085 1526.144 1526.067 1526.043 1526.035 1526.033 1526.04 1526.095 1526.12 1526.219 1526.268 1526.231 1526.287 1526.766 1527.834 1529.128 1530.174 1531.084 1533.276 1534.028 1534.107 1534.099 1534.086 1534.103 1534.063 1533.39 1533.932 1534.087 1534.113 1534.108 1534.107 1534.045 1533.915 1532.584 1533.046 1533.919 1533.964 1533.924 1533.941 1533.942 1533.943 1533.956 1533.964 1533.957 1533.945 1533.916 1533.902 1533.909 1533.896 1533.892 1533.873 1533.871 1533.869 1533.865 1533.851 1533.845 1533.828 1533.769 1533.713 1533.687 1533.46 1533.45 1533.138 1533.043 1532.891 -9999 -9999 -9999 -9999 -9999 -9999 -9999 -9999 -9999 -9999 -9999 -9999 -9999 -9999 -9999 -9999 -9999 -9999 -9999 -9999 -9999 -9999 -9999 -9999 -9999 -9999 -9999 -9999 -9999 -9999 -9999 -9999 -9999 -9999 -9999 -9999 -9999 -9999 -9999 -9999 -9999 -9999 -9999 -9999 -9999 -9999 -9999 -9999 -9999 -9999 -9999 -9999 -9999 -9999 -9999 -9999 -9999 -9999 -9999 -9999 -9999 -9999 -9999 -9999 -9999 -9999 -9999 -9999 -9999 -9999 -9999 -9999 -9999 -9999 -9999 -9999 -9999 -9999 -9999 -9999 -9999 -9999 -9999 -9999 -9999 -9999
-9999 -9999 -9999 -9999 -9999 -9999 -9999 -9999 -9999 -9999 -9999 -9999 -9999 -9999 -9999 -9999 -9999 -9999 -9999 -9999 -9999 -9999 1534.616 1534.608 1534.583 1534.563 1534.541 1534.12 1534.296 1534.283 1534.011 1533.519 1532.025 1530.372 1529.038 1528.515 1528.051 1527.855 1527.65 1527.577 1527.459 1527.433 1527.422 1527.433 1527.465 1527.383 1527.318 1527.469 1527.55 1527.519 1527.593 1527.606 1527.617 1527.615 1527.621 1527.603 1527.604 1527.653 1527.737 1527.692 1527.354 1527.207 1527.13 1527.064 1526.943 1526.922 1526.873 1526.772 1526.644 1526.651 1526.646 1526.67 1526.597 1526.597 1526.274 1526.257 1526.278 1526.598 1526.629 1526.6 1526.592 1526.536 1526.532 1526.352 1526.635 1526.677 1526.584 1526.498 1526.488 1526.41 1526.367 1526.435 1526.494 1526.453 1526.426 1526.563 1526.518 1526.498 1526.517 1526.389 1526.427 1526.344 1526.336 1526.321 1526.22 1526.173 1526.08 1526.026 1526.021 1525.956 1525.861 1526.031 1526.069 1526.274 1526.355 1526.356 1524.601 1524.398 1526.294 1526.293 1526.281 1526.227 1526.222 1526.175 1526.126 1526.191 1526.199 1526.199 1526.149 1526.154 1526.137 1526.082 1526.027 1526.016 1526.001 1525.989 1525.973 1525.971 1525.98 1526.003 1526.041 1526.11 1526.086 1526.192 1526.318 1526.979 1528.527 1529.378 1530.044 1532.982 1533.623 1533.011 1534.045 1534.05 1533.974 1533.021 1532.638 1533.313 1534.024 1534.064 1534.085 1534.101 1534.083 1533.934 1533.475 1531.822 1532.549 1533.678 1533.825 1533.868 1533.895 1533.919 1533.931 1533.915 1533.916 1533.876 1533.882 1533.872 1533.899 1533.895 1533.886 1533.876 1533.879 1533.863 1533.862 1533.853 1533.833 1533.803 1533.735 1533.717 1533.326 1532.694 1532.942 1532.857 1532.373 1530.702 1528.836 -9999 -9999 -9999 -9999 -9999 -9999 -9999 -9999 -9999 -9999 -9999 -9999 -9999 -9999 -9999 -9999 -9999 -9999 -9999 -9999 -9999 -9999 -9999 -9999 -9999 -9999 -9999 -9999 -9999 -9999 -9999 -9999 -9999 -9999 -9999 -9999 -9999 -9999 -9999 -9999 -9999 -9999 -9999 -9999 -9999 -9999 -9999 -9999 -9999 -9999 -9999 -9999 -9999 -9999 -9999 -9999 -9999 -9999 -9999 -9999 -9999 -9999 -9999 -9999 -9999 -9999 -9999 -9999 -9999 -9999 -9999 -9999 -9999 -9999 -9999 -9999 -9999 -9999 -9999 -9999 -9999 -9999 -9999 -9999 -9999
-9999 -9999 -9999 -9999 -9999 -9999 -9999 -9999 -9999 -9999 -9999 -9999 -9999 -9999 -9999 -9999 -9999 -9999 -9999 -9999 -9999 -9999 -9999 1534.611 1534.594 1534.556 1534.548 1534.522 1534.113 1534.315 1534.245 1534.411 1533.885 1531.433 1529.709 1528.526 1528.063 1527.863 1527.667 1527.581 1527.466 1527.41 1527.411 1527.44 1527.49 1527.433 1527.402 1527.577 1527.553 1527.513 1527.508 1527.609 1527.608 1527.631 1527.632 1527.618 1527.61 1527.698 1527.755 1527.673 1527.484 1527.256 1527.244 1527.101 1527.133 1526.946 1526.894 1526.809 1526.675 1526.612 1526.592 1526.626 1526.615 1526.613 1526.573 1526.263 1526.238 1526.266 1526.787 1526.702 1526.549 1526.499 1526.565 1526.49 1526.515 1526.532 1526.512 1526.477 1526.477 1526.4 1526.329 1526.314 1526.434 1526.438 1526.279 1526.584 1526.568 1526.539 1526.465 1526.437 1526.372 1526.404 1526.427 1526.342 1526.274 1526.217 1526.088 1526.023 1525.965 1525.961 1525.935 1525.95 1526.079 1526.157 1526.262 1526.336 1524.378 1524.559 1526.384 1526.383 1526.268 1526.256 1526.262 1526.218 1526.213 1526.086 1526.119 1526.147 1526.192 1526.203 1526.176 1526.141 1526.104 1526.073 1526.17 1526.232 1526.171 1526.174 1526.146 1526.107 1526.031 1526.017 1526.011 1526.069 1526.079 1526.232 1526.707 1527.453 1529.11 1531.894 1532.649 1533.702 1533.965 1534.029 1533.889 1530.776 1531.026 1531.92 1533.827 1534.016 1534.035 1534.029 1534.047 1534.001 1533.852 1532.147 1531.65 1533.705 1533.799 1533.802 1533.846 1533.844 1533.859 1533.866 1533.859 1533.839 1533.827 1533.832 1533.844 1533.874 1533.901 1533.882 1533.89 1533.871 1533.85 1533.835 1533.815 1533.76 1533.721 1533.712 1533.686 1533.626 1533.551 1533.28 1533.105 1530.683 1528.45 1528.155 -9999 -9999 -9999 -9999 -9999 -9999 -9999 -9999 -9999 -9999 -9999 -9999 -9999 -9999 -9999 -9999 -9999 -9999 -9999 -9999 -9999 -9999 -9999 -9999 -9999 -9999 -9999 -9999 -9999 -9999 -9999 -9999 -9999 -9999 -9999 -9999 -9999 -9999 -9999 -9999 -9999 -9999 -9999 -9999 -9999 -9999 -9999 -9999 -9999 -9999 -9999 -9999 -9999 -9999 -9999 -9999 -9999 -9999 -9999 -9999 -9999 -9999 -9999 -9999 -9999 -9999 -9999 -9999 -9999 -9999 -9999 -9999 -9999 -9999 -9999 -9999 -9999 -9999 -9999 -9999 -9999 -9999 -9999 -9999
-9999 -9999 -9999 -9999 -9999 -9999 -9999 -9999 -9999 -9999 -9999 -9999 -9999 -9999 -9999 -9999 -9999 -9999 -9999 -9999 -9999 -9999 -9999 1534.602 1534.592 1534.572 1534.552 1534.538 1534.512 1534.487 1534.476 1534.471 1534.429 1533.102 1531.048 1529.177 1528.181 1527.796 1527.613 1527.538 1527.468 1527.419 1527.409 1527.411 1527.528 1527.512 1527.447 1527.473 1527.536 1527.625 1527.573 1527.667 1527.585 1527.609 1527.583 1527.608 1527.649 1527.699 1527.799 1527.748 1527.54 1527.371 1527.3 1527.137 1527.091 1526.989 1526.891 1526.802 1526.695 1526.63 1526.599 1526.617 1526.613 1526.681 1526.634 1526.53 1526.395 1526.276 1526.441 1526.779 1526.687 1526.577 1526.482 1526.438 1526.52 1526.641 1526.681 1526.579 1526.571 1526.502 1526.416 1526.246 1526.445 1526.406 1526.344 1526.397 1526.549 1526.51 1526.438 1526.383 1526.377 1526.428 1526.426 1526.412 1526.357 1526.248 1526.188 1526.055 1526.01 1525.96 1525.959 1526.03 1526.143 1526.186 1526.264 1526.335 1524.371 1524.686 1526.396 1526.312 1526.307 1526.261 1526.194 1526.251 1526.232 1526.217 1526.108 1526.121 1526.131 1526.142 1526.158 1526.142 1526.124 1526.115 1526.282 1526.235 1526.178 1526.13 1526.156 1526.188 1526.309 1526.122 1526.015 1525.954 1525.977 1526.148 1526.318 1526.804 1527.626 1529.331 1532.434 1533.171 1533.934 1534.038 1533.676 1529.738 1529.892 1530.658 1531.355 1533.194 1533.967 1533.951 1533.981 1533.987 1533.884 1533.77 1531.386 1532.547 1533.77 1533.646 1533.729 1533.805 1533.804 1533.799 1533.812 1533.801 1533.786 1533.796 1533.809 1533.822 1533.836 1533.836 1533.848 1533.852 1533.866 1533.841 1533.796 1533.732 1533.714 1533.713 1533.668 1533.656 1533.302 1533.12 1532.735 1530.304 1528.27 1527.981 1527.798 -9999 -9999 -9999 -9999 -9999 -9999 -9999 -9999 -9999 -9999 -9999 -9999 -9999 -9999 -9999 -9999 -9999 -9999 -9999 -9999 -9999 -9999 -9999 -9999 -9999 -9999 -9999 -9999 -9999 -9999 -9999 -9999 -9999 -9999 -9999 -9999 -9999 -9999 -9999 -9999 -9999 -9999 -9999 -9999 -9999 -9999 -9999 -9999 -9999 -9999 -9999 -9999 -9999 -9999 -9999 -9999 -9999 -9999 -9999 -9999 -9999 -9999 -9999 -9999 -9999 -9999 -9999 -9999 -9999 -9999 -9999 -9999 -9999 -9999 -9999 -9999 -9999 -9999 -9999 -9999 -9999 -9999 -9999
-9999 -9999 -9999 -9999 -9999 -9999 -9999 -9999 -9999 -9999 -9999 -9999 -9999 -9999 -9999 -9999 -9999 -9999 -9999 -9999 -9999 -9999 -9999 1534.607 1534.601 1534.583 1534.563 1534.535 1534.51 1534.496 1534.469 1534 1534.309 1534.179 1532.425 1530.195 1528.49 1528.057 1527.717 1527.543 1527.466 1527.421 1527.42 1527.419 1527.562 1527.527 1527.456 1527.457 1527.589 1527.72 1527.626 1527.65 1527.658 1527.683 1527.635 1527.671 1527.741 1527.988 1527.877 1527.756 1527.443 1527.355 1527.281 1527.108 1527.07 1527.005 1526.944 1526.886 1526.777 1526.702 1526.619 1526.62 1526.614 1526.588 1526.588 1526.658 1526.464 1526.503 1526.318 1526.342 1526.695 1526.639 1526.542 1526.426 1526.457 1526.657 1526.611 1526.555 1526.517 1526.477 1526.471 1526.332 1526.309 1526.406 1526.381 1526.35 1526.333 1526.333 1526.407 1526.581 1526.528 1526.462 1526.428 1526.482 1526.427 1526.337 1526.207 1526.121 1526.114 1525.964 1525.952 1526.074 1526.184 1526.189 1526.294 1525.759 1524.352 1524.718 1526.466 1526.374 1526.333 1526.31 1526.242 1526.192 1526.19 1526.183 1526.115 1526.177 1526.109 1526.13 1526.143 1526.17 1526.162 1526.125 1526.13 1526.187 1526.289 1526.283 1526.134 1526.229 1526.244 1526.218 1526.206 1526.074 1526.007 1525.947 1526.079 1526.27 1527.304 1528.211 1530.91 1532.235 1533.681 1533.779 1533.664 1529.686 1528.234 1528.754 1528.813 1529.711 1533.152 1533.733 1532.296 1533.774 1533.828 1533.716 1530.597 1531.85 1533.506 1533.041 1533.678 1533.747 1533.751 1533.76 1533.784 1533.809 1533.792 1533.796 1533.783 1533.791 1533.791 1533.809 1533.817 1533.831 1533.859 1533.834 1533.757 1533.725 1533.713 1533.724 1533.051 1533.061 1533.268 1533.248 1532.066 1530.284 1528.547 1527.894 1527.74 1527.738 -9999 -9999 -9999 -9999 -9999 -9999 -9999 -9999 -9999 -9999 -9999 -9999 -9999 -9999 -9999 -9999 -9999 -9999 -9999 -9999 -9999 -9999 -9999 -9999 -9999 -9999 -9999 -9999 -9999 -9999 -9999 -9999 -9999 -9999 -9999 -9999 -9999 -9999 -9999 -9999 -9999 -9999 -9999 -9999 -9999 -9999 -9999 -9999 -9999 -9999 -9999 -9999 -9999 -9999 -9999 -9999 -9999 -9999 -9999 -9999 -9999 -9999 -9999 -9999 -9999 -9999 -9999 -9999 -9999 -9999 -9999 -9999 -9999 -9999 -9999 -9999 -9999 -9999 -9999 -9999 -9999 -9999
